# .PCD v0.7 - Point Cloud Data file format
VERSION 0.7
FIELDS x y z rgba
SIZE 4 4 4 4
TYPE F F F U
COUNT 1 1 1 1
WIDTH 1288
HEIGHT 1
VIEWPOINT 0 0 0 1 0 0 0
POINTS 1288
DATA ascii
78.629997 -46.360001 -373.57001 2501669
78.620003 -46.630001 -373.67999 2828839
78.699997 -40.59 -373.70001 2567207
78.529999 -40.740002 -373.62 2698023
78.449997 -84.059998 -372.48001 1907997
78.290001 -83.529999 -372.44 1777437
78.480003 -41.759998 -373.57999 2435364
78.669998 -27.540001 -373.94 2630430
79.110001 -27.700001 -374.06 2761508
78.830002 -27.33 -373.98001 2370082
77.019997 -26.01 -373.60999 2566443
77.290001 -26.120001 -373.64001 2631720
76.459999 -39.189999 -373.31 2173225
76.980003 -46.139999 -373.25 2236179
79.660004 -45.02 -373.64999 2173221
80.029999 -45.310001 -373.69 2696997
77.029999 -29.209999 -373.94 2369832
77.839996 -27.299999 -373.78 1976613
77.510002 -27.469999 -373.73001 2500391
75.5 -28.4 -373.34 2435105
75.360001 -28.559999 -373.34 2172706
75.559998 -28.700001 -373.45001 2762529
83.059998 -31.26 -374.73001 2369060
83.050003 -31.940001 -374.64999 2172199
83.599998 -31.610001 -374.75 2041123
77.860001 -25.870001 -373.79999 2107686
79.93 -34.450001 -374.31 2237226
79.730003 -34.5 -374.25 2433572
79.980003 -34.68 -374.26999 2172708
79.029999 -40.580002 -373.81 2632487
79.290001 -40.869999 -373.82001 2369828
77.620003 -45.619999 -373.48999 2107423
76.650002 -78.529999 -372.14001 1775899
78.230003 -27.469999 -373.85999 3023902
78.360001 -27.280001 -373.87 2237977
78.07 -27.040001 -373.82001 1713692
78.440002 -46.060001 -373.45999 2499882
78.169998 -79.410004 -372.47 1777179
78.43 -79.470001 -372.53 1711645
78.309998 -79.239998 -372.57999 1776928
78.709999 -79.330002 -372.69 2039837
78.849998 -79.269997 -372.73999 2039837
78.809998 -80.370003 -372.35999 1908247
78.129997 -81.169998 -372.19 1776410
78.269997 -81.040001 -372.20999 1777181
78.910004 -82.510002 -372.38 1449500
78.980003 -82.279999 -372.32001 1318172
78.959999 -84.769997 -372.60001 1974560
78.459999 -82.43 -372.26001 1516577
78.5 -82.300003 -372.23001 1318688
78.540001 -81.82 -372.17001 1580573
81.459999 -40.169998 -374.25 2436130
80.870003 -39.779999 -374.17001 2565925
80.550003 -40.169998 -374.16 2632492
78.68 -45.77 -373.48999 2566442
77.830002 -44.259998 -373.59 2631974
80.139999 -44.759998 -373.70999 2500387
78.510002 -41.23 -373.57001 2763561
78.559998 -45.610001 -373.5 2369834
79.870003 -45.689999 -373.67999 2500645
76.830002 -46.029999 -373.28 2236179
76.629997 -46.049999 -373.23001 2171674
79.150002 -29.02 -374.35001 2368544
79.18 -28.879999 -374.32001 2434593
78.980003 -28.84 -374.29001 2434840
77.82 -26.549999 -373.78 2303517
79.379997 -80.190002 -372.56 1710877
79.57 -80.639999 -372.54999 1907996
78.139999 -24.280001 -374.25 2764323
78.239998 -24.48 -374.22 2436653
78.339996 -24.290001 -374.32999 2371372
79.800003 -24.76 -374.41 2829096
80.110001 -24.65 -374.47 3090985
79.760002 -24.43 -374.48001 2501681
80.150002 -36.93 -374.23001 2302237
80.099998 -36.689999 -374.19 1975072
79.93 -36.869999 -374.20001 2171418
78.699997 -35.349998 -374.32001 2106134
78.25 -36.189999 -374.23999 1646112
78.379997 -36.139999 -374.20999 1646112
79.18 -26.17 -374.25 2238242
78.110001 -24.77 -374.10999 2501162
76.300003 -24.73 -373.85999 2764059
78.849998 -81.580002 -372.20001 1514269
78.800003 -81.260002 -372.23001 1776676
79.25 -26.02 -374.29001 1779490
78.900002 -33.119999 -374.29999 2435354
78.580002 -34.060001 -373.95999 1908764
77.650002 -77.239998 -372.51999 1317663
77.93 -77.540001 -372.57999 1645332
79.169998 -42.93 -373.70001 2370346
78.849998 -42.18 -373.66 2698277
77.099998 -44.52 -373.60999 2566182
78.959999 -27.02 -374.06 2501418
79.209999 -27.389999 -374.10999 2630683
79.330002 -27.059999 -374.19 2763301
78.010002 -87.32 -372.14001 2106149
78.190002 -87.25 -372.20001 2106401
78.010002 -87.120003 -372.14999 2171942
76.970001 -40.790001 -373.41 2565663
76.870003 -28.1 -373.67001 1845025
77.129997 -27.860001 -373.70001 2106658
79.25 -29.16 -374.38 2303269
79.339996 -29.02 -374.35999 2303269
78.129997 -40.549999 -373.53 2630681
78.330002 -40.900002 -373.54001 2697000
77.25 -29.33 -374.03 2369312
79.349998 -31.34 -373.85999 2106922
79.669998 -31.34 -373.89999 2565934
77.25 -28.610001 -373.78 2565398
79.779999 -28.299999 -374.39001 2368804
79.809998 -28.120001 -374.41 2303514
78.459999 -29.219999 -374.14001 2304298
78.400002 -29.25 -374.10999 2238243
78.470001 -29.379999 -374.16 2238752
79.610001 -28.959999 -374.38 2434598
79.519997 -29.23 -374.41 2172453
77.330002 -44.650002 -373.60999 2370089
79.040001 -78.849998 -372.85999 1973533
79.220001 -78.650002 -372.89001 2499105
78.93 -78.550003 -372.85999 2564643
77.18 -79.18 -372.26001 1317401
76.040001 -39.380001 -373.19 2369827
79.059998 -77 -373.17001 1777438
78.870003 -77.129997 -373.10001 1777182
79.050003 -77.18 -373.13 1777698
77.980003 -76.120003 -372.70999 1645851
77.75 -76.730003 -372.62 1579797
78.050003 -76.519997 -372.76001 1580572
77.650002 -76.400002 -372.57999 1710873
78.510002 -77.550003 -372.87 1711645
78.339996 -86.980003 -372.32001 2303261
78.419998 -86.82 -372.38 2106404
78.800003 -23.780001 -374.72 2304804
78.800003 -23.940001 -374.64001 2567724
78.940002 -23.83 -374.70001 2304804
77.800003 -87.089996 -372.07999 1910310
77.410004 -25.85 -373.67999 2369831
79.949997 -34 -374.5 2171684
80.209999 -33.900002 -374.54999 2171169
79.25 -35.060001 -374.26001 2173486
79.269997 -35.18 -374.29999 1976105
79.370003 -35.150002 -374.28 2041385
78.839996 -84.260002 -372.57001 1842972
78.669998 -82.510002 -372.32001 1319198
77.879997 -79.230003 -372.42001 1841697
78.419998 -76.330002 -372.89999 1515034
78.639999 -77.290001 -372.98999 1777444
81.290001 -22.08 -375.14999 2434858
78.190002 -26.709999 -373.87 2171157
79.169998 -25.83 -374.26999 1976606
79.419998 -25.959999 -374.35001 2237990
78.940002 -29.32 -374.35001 2697513
78.809998 -29.01 -374.29001 2304041
78.410004 -79.720001 -372.42001 1581087
78.690002 -79.669998 -372.51999 1842724
78.160004 -26.200001 -373.89001 2303518
80.129997 -25.92 -374.47 2237729
80.550003 -25.66 -374.51999 3026735
80.18 -25.5 -374.44 2762536
79.120003 -77.389999 -373.09 1909024
79.410004 -77.32 -373.10999 1909025
79.279999 -77.139999 -373.16 1777957
80.269997 -82.400002 -372.70001 2301732
80.419998 -82.199997 -372.73001 2105634
77.870003 -85.839996 -372.20999 2040606
79.279999 -85.540001 -372.76999 1975584
78.599998 -23.9 -374.60999 2436907
79.029999 -23.75 -374.73001 2631971
79.089996 -23.85 -374.67001 2763560
78.900002 -33.630001 -374.20999 2041384
79.080002 -33.549999 -374.32999 2041893
78.860001 -33.34 -374.23999 1975062
77.860001 -77.040001 -372.66 1580328
79.730003 -41.75 -373.79001 2761756
79.760002 -41.130001 -373.89001 2894380
78.440002 -24.1 -374.45999 2764591
78.669998 -24.09 -374.54001 2699054
79.32 -21.620001 -374.26999 2370602
78.940002 -21.6 -374.10001 2042407
78.089996 -79.650002 -372.37 1842202
78.589996 -81.099998 -372.22 1645599
79.699997 -43.330002 -373.70001 2370087
78.330002 -46.400002 -373.5 2566448
80.599998 -46.41 -373.98001 2303266
80.32 -46.41 -373.94 2433309
79.050003 -23.09 -374.73999 2501413
78.309998 -75.75 -372.76999 1777947
78.440002 -76.709999 -372.95001 1580056
78.669998 -76.970001 -373.04999 1645849
78.790001 -76.75 -373.09 1646107
77.919998 -24.389999 -374.14001 2763559
78.580002 -24.290001 -374.42001 2895918
78.809998 -24.24 -374.48999 2698538
78.529999 -27.01 -373.92999 2107166
79.919998 -32.07 -374.13 2501406
80.169998 -32.25 -374.22 2107936
80.309998 -31.969999 -374.14001 2304032
80.099998 -22.1 -374.67999 2500910
79.68 -22.219999 -374.57001 2500639
80.019997 -22.52 -374.72 3156266
80.32 -86.519997 -373.14001 2304293
79.470001 -85.269997 -372.87 2433828
79.199997 -85.309998 -372.73001 1909536
78.779999 -29.809999 -374.29999 2238241
80.230003 -33 -374.44 2303777
80.470001 -33.02 -374.42999 2237734
80.519997 -32.790001 -374.39999 2106664
78.800003 -83.730003 -372.57001 1712159
79.230003 -44.240002 -373.60001 2830120
79.720001 -44.169998 -373.60001 2108451
78.400002 -82.93 -372.39001 2104858
79.239998 -32.189999 -374.10999 2762533
79.080002 -31.959999 -373.98001 2565405
80.779999 -36.060001 -374.22 2236191
80.93 -36.5 -374.26999 2695974
81.199997 -36.09 -374.31 1317659
78.489998 -29.049999 -374.14999 2304298
78.720001 -28.639999 -374.20999 2238241
78.889999 -28.469999 -374.20001 2434338
79.639999 -43.830002 -373.60999 2240300
78.489998 -29.67 -374.17001 2304040
79.050003 -29.559999 -374.39001 2172967
79.360001 -28.809999 -374.32999 2565666
79.580002 -28.65 -374.32999 2500905
78.419998 -28.690001 -374.10001 2565923
78.410004 -28.549999 -374.10001 2368535
78.300003 -29.290001 -374.06 2238243
78.370003 -29.09 -374.07999 2238243
78.540001 -45.41 -373.54001 2106915
79.989998 -43.970001 -373.62 2501416
78.739998 -41.57 -373.60999 2435365
79.199997 -41.700001 -373.69 2435622
79.889999 -35.93 -374.17999 1843228
79.639999 -35.709999 -374.23001 2173216
79.550003 -35.950001 -374.20001 2105874
78.669998 -82.089996 -372.20999 1646620
78.209999 -80.589996 -372.26001 2039334
78.32 -79 -372.64001 1842723
80.839996 -80.580002 -373.09 2238245
81.029999 -80.410004 -373.14999 1975580
80.809998 -80.339996 -373.10001 2041123
78.639999 -36.200001 -374.19 2302504
78.480003 -35.970001 -374.20001 1908514
79.870003 -27.719999 -374.47 2631978
79.790001 -27.469999 -374.42999 2566185
79.669998 -27.690001 -374.34 2368298
78.900002 -77.370003 -373.04999 1711651
78.300003 -76.010002 -372.82001 1777437
78.739998 -79.980003 -372.42001 1842466
79.650002 -37.189999 -374.20999 2632225
79.769997 -37.029999 -374.20001 2697242
79.550003 -36.990002 -374.14999 2894116
78.879997 -79.059998 -372.79999 1777180
78.690002 -78.760002 -372.79001 2105375
79.18 -79.529999 -372.70001 1580574
79.07 -79.839996 -372.56 2038813
78.769997 -33.860001 -374.07999 1909537
78.639999 -33.48 -374.07001 1975074
80.699997 -35.610001 -374.20001 1909273
80.559998 -35.240002 -374.23001 2303527
81.059998 -35.23 -374.32001 2172193
80.709999 -34.939999 -374.32999 2369574
80.809998 -35.330002 -374.25 2041124
78.800003 -33.07 -374.25 2237981
79.43 -35.07 -374.23999 2041385
79.480003 -35.189999 -374.26001 2041385
79.599998 -35.150002 -374.23999 2041122
80.959999 -27.73 -374.89001 2632996
80.989998 -27.59 -374.82999 2436391
79.440002 -35.48 -374.28 2041643
79.220001 -35.32 -374.32001 1713963
79.169998 -35.529999 -374.29999 2107691
77.150002 -28.030001 -373.75 1975839
78.900002 -81.879997 -372.22 1974042
79.099998 -82.82 -372.5 1646370
78.709999 -82.75 -372.39999 1385244
78.75 -83.18 -372.51001 1908763
79.080002 -35.16 -374.29999 1976105
79.599998 -24.9 -374.37 2566696
79.330002 -24.950001 -374.32001 2501416
79.660004 -25.110001 -374.35999 2436647
78.43 -25.059999 -374.10999 2829865
80.290001 -24.02 -374.75 2435624
80.449997 -23.940001 -374.82999 2566699
80.269997 -23.91 -374.81 2566699
80.68 -76.800003 -373.23001 2368029
80.410004 -76.589996 -373.29999 2040865
79.5 -79.800003 -372.67999 1580318
81.650002 -81.139999 -373.01001 1974553
81.980003 -81.139999 -372.98999 1974817
81.889999 -80.870003 -373.07001 2040092
79.209999 -75.940002 -373.17999 2499619
78.980003 -76.639999 -373.16 1777693
78.739998 -76.540001 -373.06 1843232
78.400002 -40.439999 -373.63 2762528
79.099998 -32.439999 -374.17999 2304041
79.459999 -29.530001 -374.44 2238249
79.199997 -29.34 -374.39999 2435625
80.599998 -78.190002 -373.03 1843234
80.620003 -78.360001 -373.06 1515553
80.82 -78.309998 -373.06 1909025
79.589996 -82.790001 -372.60001 2433823
79 -85.150002 -372.62 2041123
80.5 -80.330002 -372.98999 1974304
80.639999 -80.529999 -373.04001 2041129
79.82 -82.360001 -372.56 1515558
79.300003 -82.410004 -372.44 1711906
78.57 -82.43 -372.28 1319198
78.959999 -82.099998 -372.26001 1711641
78.830002 -46.07 -373.54001 2501416
83.059998 -77.690002 -373.69 2172198
78.5 -24.51 -374.29999 2634034
79.25 -23.459999 -374.76001 2763300
78.510002 -28.84 -374.16 2370098
78.620003 -28.780001 -374.20001 2433829
78.5 -28.67 -374.14001 2433829
78.519997 -27.700001 -373.95001 2630167
77.739998 -40.349998 -373.47 2107683
79.269997 -35.93 -374.23001 2236688
79.379997 -35.720001 -374.26001 2368799
79.190002 -35.73 -374.26999 2500126
79.57 -39.82 -373.98999 2828325
80.519997 -38.549999 -374.13 3156009
81.370003 -39.25 -374.25 2304297
81.040001 -39.169998 -374.17001 1911334
81.010002 -39.43 -374.17999 2500638
78.830002 -35.450001 -374.31 2369056
78.830002 -35.560001 -374.29001 2499876
78.959999 -35.529999 -374.29999 2499876
79.449997 -34.509998 -374.20001 2368800
79.220001 -34.619999 -374.17001 2040620
79.5 -34.790001 -374.20001 2106661
80.480003 -39.5 -374.10001 2302495
80.150002 -39.32 -374.04001 2499612
79.989998 -39.639999 -374.04001 2303264
80.309998 -34.869999 -374.29001 2303520
78.769997 -35.889999 -374.22 2565154
79.029999 -36.150002 -374.19 2434337
78.519997 -28.530001 -374.14001 2368535
80.540001 -32.529999 -374.35001 2171939
80.489998 -32.389999 -374.31 2237472
80.330002 -32.540001 -374.34 1908768
79.230003 -28.040001 -374.13 2762020
79.410004 -27.959999 -374.17999 2500132
77.889999 -81.449997 -372.16 1645336
79.199997 -81.949997 -372.29001 1580572
79.190002 -82.160004 -372.34 1645849
80.059998 -31.76 -374.04001 2501160
80.410004 -31.4 -373.98999 2501681
80.260002 -31.549999 -374 2436140
80.610001 -31.58 -374.06 2566181
79.639999 -85.489998 -372.95999 2302757
80.120003 -85.480003 -373.20999 2500906
78.099998 -77.900002 -372.57999 1710617
81.459999 -79.57 -373.29999 1648166
81.400002 -79.279999 -373.29999 2302753
81.209999 -79.519997 -373.22 1974552
79.690002 -36.799999 -374.16 2631199
79.470001 -78.43 -372.92999 2563878
79.169998 -78.330002 -372.91 2106148
78.389999 -77.309998 -372.88 1449758
78.400002 -77.059998 -372.92001 1515547
78.989998 -28.27 -374.16 2434339
78.660004 -26.559999 -374.01001 2697255
82.400002 -34.48 -374.51999 2237984
82.129997 -34.73 -374.48999 2172193
82.580002 -34.82 -374.48001 2303779
78.769997 -44.700001 -373.60001 2500133
78.110001 -76.870003 -372.79999 1515551
78.379997 -45.610001 -373.48999 2434860
76.470001 -45.98 -373.23999 2040601
80.120003 -78.220001 -373 1842971
80.410004 -78.269997 -373.03 1581342
80.43 -78.050003 -373 2105372
79.110001 -79.279999 -372.78 1646368
79.860001 -78.529999 -372.98001 1973780
79.519997 -78.760002 -372.92999 2236197
78.82 -79.360001 -372.70999 2039837
78.800003 -79.419998 -372.67001 2039837
78.940002 -79.400002 -372.70999 1974045
79.849998 -78.919998 -372.95999 1777436
79.550003 -79.059998 -372.89999 1776929
79.900002 -79.269997 -372.91 1646107
79.639999 -22.610001 -374.66 2632998
79.410004 -22.719999 -374.67001 3026729
80.440002 -37.310001 -374.25 2828579
80.32 -37.509998 -374.23001 2762791
80.559998 -37.41 -374.23999 2368799
78.669998 -24.76 -374.25 2567721
79.029999 -24.709999 -374.32001 2436401
78.769997 -24.48 -374.37 2765101
80.629997 -44.169998 -373.78 2763822
80.809998 -43.900002 -373.85001 2960936
80.529999 -43.919998 -373.76999 3157803
79.089996 -46.610001 -373.82999 2172194
79 -46.43 -373.73001 2238245
81.150002 -40.98 -374.22 2697512
81.230003 -41.34 -374.22 2697768
81.580002 -41.279999 -374.29999 2566182
80.82 -26.57 -374.64999 2239530
80.800003 -26.92 -374.66 2631978
81.099998 -26.870001 -374.70001 2500634
79.080002 -24.35 -374.45999 2304551
79.449997 -28.190001 -374.20999 2564896
79.650002 -32.75 -374.35999 2238763
79.699997 -32.419998 -374.23999 2305061
79.550003 -32.150002 -374.13 2698032
80.099998 -32.66 -374.35001 2041892
80.279999 -32.73 -374.38 1910313
78.360001 -23.93 -374.48001 2830128
78.25 -87.080002 -372.26001 2303261
78.089996 -87 -372.20001 2564897
78.959999 -23.969999 -374.62 2370602
80.099998 -24.440001 -374.51999 2501676
79.419998 -24.620001 -374.39999 2435607
78.809998 -45.459999 -373.54999 2500391
78.839996 -46.349998 -373.64001 2370853
80.150002 -46.110001 -373.81 2565918
80.169998 -46.02 -373.79001 2565918
79.970001 -46.029999 -373.76001 2958881
80.139999 -34.59 -374.34 2238244
79.580002 -35.310001 -374.26001 2040868
79.400002 -35.27 -374.29001 1909290
78.230003 -21.780001 -373.81 2500654
79.480003 -34.189999 -374.26001 2172711
79.529999 -34.349998 -374.23001 2303523
79.699997 -34.310001 -374.29001 2172965
78.790001 -33.16 -374.22 2237981
79.300003 -23.879999 -374.64999 3157033
82.330002 -23.1 -374.89999 2958620
82.550003 -23.219999 -374.95001 2434847
82.690002 -22.959999 -374.94 2041641
78.919998 -81.07 -372.28 1777696
82.489998 -82.07 -373.19 2238252
82.629997 -82.239998 -373.25 2435372
80.25 -81.480003 -372.75 1909281
80.470001 -81.540001 -372.84 1844263
78.489998 -82.589996 -372.31 1516577
78.690002 -25.450001 -374.10999 2435109
79.389999 -24.219999 -374.51999 2894119
79.139999 -24.059999 -374.57999 2960423
80.260002 -28.190001 -374.75 2370084
80.190002 -28.040001 -374.70999 2698016
80.040001 -28.110001 -374.59 2500631
80.629997 -26.120001 -374.57999 2632741
79.029999 -33.860001 -374.20999 2435111
79.050003 -34.09 -374.16 2107169
79.480003 -81.809998 -372.37 1644570
79.470001 -82.099998 -372.39999 1646112
81.209999 -39 -374.22 2435626
80.68 -43.310001 -373.97 2960686
80.949997 -43.07 -374.07999 2501927
80.5 -43 -373.98001 2370605
80.019997 -43.639999 -373.67001 2435883
80.150002 -43.5 -373.73999 2632746
80.029999 -43.349998 -373.76001 2567209
80.190002 -43.369999 -373.81 2633003
80.300003 -43.5 -373.79999 2764075
80.330002 -41.830002 -373.95001 2763557
80.029999 -42.349998 -373.85001 2631205
80.459999 -42.5 -373.98001 2894633
82.400002 -25.440001 -374.87 2107430
83.230003 -25.4 -374.98001 2434075
82.940002 -24.93 -374.92999 2500646
81.260002 -87.68 -373.16 2827298
81.580002 -86.959999 -373.32001 2500129
81.349998 -87.160004 -373.28 2500386
78.370003 -87.120003 -372.31 2303261
78.809998 -76.309998 -373.06 1777696
79.139999 -46.299999 -373.72 2105892
79.389999 -46.580002 -373.89001 2237730
80.080002 -46.330002 -373.87 2892574
80.199997 -46.23 -373.85999 2499608
79.389999 -76.720001 -373.23999 1974560
79.230003 -76.889999 -373.20999 1712418
79.379997 -76.910004 -373.20999 1843492
79.959999 -37.119999 -374.23999 2501155
79.610001 -36.509998 -374.14001 2368799
79.480003 -38.009998 -374.39001 3223344
79.699997 -37.57 -374.32999 2895149
81.589996 -42.299999 -374.26999 2630175
80.980003 -41.66 -374.14999 2567209
80.910004 -42.290001 -374.10001 2763305
80.080002 -34.25 -374.44 1909798
79.870003 -34.27 -374.35999 2106662
80.080002 -34.41 -374.38 2106664
79.25 -34.040001 -374.25 2435366
79.43 -34.060001 -374.29999 2172711
78.690002 -33.220001 -374.14001 2369568
79.650002 -46.939999 -374.07999 2368816
79.169998 -46.150002 -373.67001 2172196
79.309998 -46.060001 -373.67001 2434595
78.959999 -35.349998 -374.32001 2172969
79.330002 -33.939999 -374.31 2238251
79.5 -33.970001 -374.35999 1975849
79.290001 -33.77 -374.35001 2238760
80.720001 -39.25 -374.10999 2893344
80.550003 -39.099998 -374.07999 2761757
80.43 -39.25 -374.07001 2761757
83.25 -38.880001 -374.82999 2172456
83.139999 -38.549999 -374.82001 2106659
82.839996 -38.799999 -374.67001 2237975
82.139999 -34.279999 -374.54999 2238243
81.959999 -34.490002 -374.53 2107426
78.720001 -35.650002 -374.26001 2368029
80.199997 -76.489998 -373.32999 2368800
81.379997 -77.690002 -373.06 1975065
81.410004 -77.339996 -373.07001 2498586
79.019997 -76.470001 -373.16 2039838
79.080002 -76.32 -373.17001 2039835
78.949997 -31.52 -373.82001 1974558
80.339996 -33.32 -374.48001 1712406
80.160004 -33.259998 -374.48999 2172194
80.279999 -33.48 -374.5 1712406
79.959999 -36.459999 -374.16 2106134
80.099998 -36.209999 -374.16 1908520
79.760002 -36.209999 -374.16 1974813
79.620003 -76.949997 -373.20001 2040612
79.809998 -77.160004 -373.14001 1909796
80.029999 -76.779999 -373.23999 2106147
78.419998 -78.82 -372.70001 1909277
79.900002 -35.68 -374.20001 2040606
80.080002 -35.790001 -374.17001 2040606
79.059998 -80.239998 -372.44 1907483
80.309998 -83.300003 -372.84 2039583
80.370003 -83.519997 -372.85999 2105121
80.690002 -83.220001 -372.88 2106406
80.790001 -82.379997 -372.85001 2040103
80.059998 -83.470001 -372.82001 1974046
80.809998 -82.080002 -372.85999 1843494
80.589996 -82.300003 -372.78 1974564
80.379997 -85.370003 -373.22 2763817
80.540001 -85.540001 -373.20999 2894376
82.07 -83.879997 -372.89001 2630435
82.580002 -83.970001 -373.03 2238249
82.220001 -83.650002 -372.97 2237470
80.959999 -23.75 -374.89999 2762537
80.790001 -23.83 -374.89999 2763046
81.010002 -23.92 -374.85999 2566953
80.230003 -23.41 -374.92001 2567979
80.010002 -23.280001 -374.85001 2633513
79.959999 -23.5 -374.85001 2436391
80.470001 -20.540001 -374.45001 1646883
80.629997 -20.73 -374.51001 1844260
80.690002 -20.530001 -374.48001 1647136
81.610001 -19.73 -374.73999 1514774
81.709999 -19.51 -374.72 1842969
81.080002 -34.849998 -374.41 1844256
81.43 -35.110001 -374.41 2105372
83.120003 -33.560001 -374.66 2499621
83.150002 -33.09 -374.66 2500131
82.709999 -33.310001 -374.57001 2566184
79.050003 -35.84 -374.25 2565152
80.889999 -85.959999 -373.17999 2369315
80.739998 -85.699997 -373.19 2500903
80.779999 -27.57 -374.81 2436139
80.839996 -27.469999 -374.76999 2436391
80.620003 -27.559999 -374.78 2632750
80.440002 -24.51 -374.56 2435881
80.449997 -24.780001 -374.5 2304811
80.949997 -25.74 -374.63 2567463
81.279999 -25.59 -374.70001 2697765
81.129997 -25.32 -374.64001 2370341
79.43 -27.690001 -374.19 2565418
79.519997 -27.41 -374.26001 2631201
80.720001 -25.120001 -374.53 2567210
80.470001 -25.049999 -374.48001 2763053
80.510002 -25.309999 -374.48999 2829108
79.190002 -77.029999 -373.17999 1712418
79.910004 -76.599998 -373.28 2171677
80.139999 -76.309998 -373.38 2565926
80.809998 -20.67 -374.53 1843491
80.940002 -21.049999 -374.67999 1909025
80.830002 -20.85 -374.60001 1909541
80.639999 -21 -374.59 1909796
79.870003 -26.74 -374.45001 2763816
79.669998 -27.110001 -374.35999 2435107
82.309998 -31.73 -374.51001 2564126
82.239998 -31.41 -374.57001 2104861
82.059998 -31.66 -374.45999 2236696
81.440002 -28.450001 -374.92999 3092271
81.360001 -28.1 -374.94 2830641
81.019997 -28.290001 -374.97 2634550
83.559998 -22.32 -375.12 1843233
83.330002 -22.43 -375.04999 2500651
83.5 -22.51 -375.10999 2171686
79.199997 -31.67 -373.92001 2238494
79.889999 -31.27 -373.89001 2566954
79.260002 -76.209999 -373.22 2302752
79.620003 -28.370001 -374.29999 2368551
80.43 -45.450001 -373.79001 2632478
80.489998 -45.02 -373.76999 2304548
80.410004 -43.759998 -373.76001 2960171
80.400002 -43.619999 -373.79001 2960171
80.260002 -43.650002 -373.73001 2960171
79.010002 -46.23 -373.64999 2303525
80.290001 -79.410004 -372.95999 2039579
78.660004 -79.459999 -372.60999 1908766
80.489998 -78.739998 -373.07999 1646366
80.169998 -78.809998 -373.03 1776408
80.440002 -79.089996 -373.04999 1711387
80.309998 -39.07 -374.04999 3155232
79.879997 -83.18 -372.73001 2170910
80.07 -82.709999 -372.69 2040357
82.199997 -39.740002 -374.37 1977380
81.480003 -39.610001 -374.26001 2238754
79.900002 -44.259998 -373.62 2500634
79.989998 -44.32 -373.64001 2565663
80 -44.259998 -373.63 2500634
81.470001 -43.189999 -374.14001 2304293
81.080002 -43.419998 -374.01999 2502695
81.459999 -43.599998 -374.01999 2435367
79.480003 -78.050003 -372.95001 3088673
79.870003 -77.769997 -372.98001 1908512
79.550003 -77.610001 -373.03 1777693
78.919998 -76.910004 -373.14001 1777432
79.110001 -76.849998 -373.20001 1777692
79.870003 -40.66 -374.04999 2632228
79.739998 -34.740002 -374.22 2105888
79.75 -75.25 -373.39999 2566444
79.389999 -75.25 -373.23999 2697515
79.419998 -75.449997 -373.26999 2565673
79.300003 -78.889999 -372.89001 2105117
80.080002 -77.349998 -373.06 1975072
80.290001 -77.599998 -372.98999 2368545
78.410004 -86.150002 -372.38 2105893
81.830002 -87.050003 -373.32001 2369057
79.510002 -42.299999 -373.73999 2566686
79.800003 -42.82 -373.78 2500647
80.510002 -27.42 -374.72 2698027
79.480003 -76.050003 -373.29999 2500646
79.470001 -75.720001 -373.29999 2435112
80.300003 -76.010002 -373.48001 2894377
80.25 -75.75 -373.51001 3157542
81.379997 -47.25 -374.20001 1778978
81.339996 -46.869999 -374.17999 1975577
79.239998 -79.089996 -372.85001 1777185
79.459999 -76.330002 -373.28 2171167
79.580002 -76.489998 -373.28 2040352
79.720001 -76.18 -373.35001 4735292
80.029999 -27.889999 -374.59 2960424
80.199997 -27.889999 -374.72 2895407
79.410004 -36.200001 -374.17001 1842457
80.459999 -21.4 -374.66 2302754
80.580002 -21.26 -374.64999 2106401
80.339996 -21.290001 -374.57999 2499104
80.870003 -21.23 -374.72 2040860
81.160004 -21.25 -374.81 2302749
81.550003 -34.110001 -374.51999 2434342
81.760002 -34.299999 -374.54001 2171687
82 -34.040001 -374.54001 2238501
79.730003 -32.970001 -374.42999 2435119
80.230003 -37.43 -374.25 2762791
80.080002 -37.439999 -374.28 2566439
80.110001 -37.610001 -374.26001 2632745
79.449997 -46.09 -373.70999 2434595
79.709999 -46.02 -373.72 2762274
80.169998 -45.630001 -373.73001 2435106
80.410004 -45.77 -373.81 2303515
79.989998 -44.169998 -373.62 2500634
82.099998 -77.639999 -373.32001 2105639
82.059998 -77.830002 -373.32001 2106156
82.25 -77.699997 -373.39999 2105639
81.040001 -77.879997 -373.01999 2040344
80.610001 -77.790001 -372.98999 2498331
80.760002 -78.059998 -373.01999 2105630
80.489998 -77.330002 -373.04001 1908765
80.43 -77.099998 -373.12 2040862
80.010002 -76.139999 -373.41 4801083
79.889999 -75.93 -373.42999 2697254
79.849998 -31.379999 -373.92001 2829354
80.07 -31.370001 -373.92999 2633000
81.879997 -35.419998 -374.44 1910827
82.339996 -35.419998 -374.45001 2237213
82.230003 -35.07 -374.45999 2500641
81.239998 -31.35 -374.28 2040864
81.260002 -31.530001 -374.23999 2171424
78.709999 -27.9 -374.01999 2498841
81.199997 -27.110001 -374.72 2631455
81.330002 -27 -374.73999 2566689
80.860001 -27.629999 -374.85001 2436139
80.75 -27.639999 -374.82999 2436139
80.800003 -27.700001 -374.87 2567467
81.440002 -29.030001 -374.95999 2829352
81.68 -28.91 -374.92001 3025706
81.440002 -28.75 -374.92999 3025448
79.449997 -26.299999 -374.32999 2697254
80.160004 -77.910004 -372.97 2368546
80.650002 -21.450001 -374.73999 1975843
80.82 -21.389999 -374.76999 1844769
80.080002 -80.970001 -372.75 1844004
80.220001 -80.639999 -372.85999 1843478
79.93 -80.620003 -372.70999 1712421
80.589996 -81.239998 -372.94 2368295
80.879997 -81.220001 -373.01001 2171170
80.809998 -80.889999 -373.04999 2368803
80.190002 -35.459999 -374.19 2302753
80.269997 -35.209999 -374.20999 2565168
79.790001 -37.27 -374.26001 2632225
79.540001 -37.369999 -374.25 2698024
80.360001 -36.990002 -374.26001 2630944
80.129997 -37.189999 -374.26001 2499364
80.68 -37.529999 -374.23001 2435106
80.790001 -37.380001 -374.26001 1910306
80.269997 -36.459999 -374.17999 2040877
82.169998 -36.34 -374.45999 2236956
81.849998 -36.700001 -374.41 2105624
82.349998 -36.810001 -374.5 2236186
82.400002 -82.900002 -373.17999 2368543
82.660004 -82.660004 -373.26001 2435107
82.110001 -82.730003 -373.16 2041122
80.410004 -37.830002 -374.17999 2632483
80.599998 -37.950001 -374.19 2566174
80.610001 -37.709999 -374.20999 2369825
79.730003 -38.060001 -374.34 2763817
79.860001 -37.709999 -374.32001 2895148
80.370003 -43.310001 -373.88 2698540
80.199997 -43.16 -373.85999 2501929
80.889999 -44.779999 -373.82999 2565661
80.849998 -45.23 -373.89999 2304293
82.120003 -41.549999 -374.39001 2566177
81.75 -40.880001 -374.29999 2632489
80.269997 -43.880001 -373.69 2829612
81.18 -44.900002 -373.95001 2566182
81.199997 -44.57 -373.88 2763049
80.099998 -75.919998 -373.47 2829356
80.610001 -85.860001 -373.20999 2500645
80.599998 -86.07 -373.20001 2369317
79.779999 -84.989998 -372.98999 2171681
79.949997 -85.080002 -373.09 2237732
82.43 -86.040001 -373.34 2764071
82.410004 -85.769997 -373.23999 2632744
82.18 -85.940002 -373.29999 2764071
79.269997 -85.050003 -372.76001 2106142
82.400002 -86.949997 -373.39999 2304035
82.68 -86.919998 -373.42999 2369829
82.529999 -86.739998 -373.5 2500902
80.940002 -20.459999 -374.51001 1581089
81.290001 -21.67 -375.04999 2106662
81.550003 -21.68 -375.19 2237476
81.489998 -21.540001 -375.07001 1975325
81.5 -23.969999 -374.85999 2632230
80.93 -24.17 -374.78 2894900
80.050003 -23.08 -374.82001 2502192
79.339996 -21.98 -374.39999 2567464
79.370003 -22.91 -374.72 3091242
78.940002 -23.719999 -374.75 2304804
80.809998 -23.42 -374.95999 2632482
80.889999 -23.139999 -374.94 2173992
80.529999 -23.280001 -374.95999 2567207
80.279999 -24.129999 -374.69 2435624
80.139999 -24.18 -374.64001 2369833
80.129997 -23.82 -374.82001 2370599
80.169998 -23.629999 -374.89001 2632998
79.940002 -23.709999 -374.79999 2698275
81 -35.650002 -374.26001 2301981
81.379997 -35.59 -374.35999 1712162
80.900002 -33.669998 -374.45001 2106657
80.959999 -33.91 -374.48999 2697762
81.190002 -33.77 -374.45001 2370083
79.82 -39.41 -374.01001 2566169
79.860001 -25.309999 -374.38 2698274
79.410004 -25.280001 -374.31 2763301
81.639999 -25.18 -374.70999 2107165
81.529999 -25.030001 -374.69 2304026
81.410004 -25.25 -374.69 2173731
79.800003 -26.200001 -374.42999 2042403
80.82 -25.360001 -374.56 2829354
78.93 -25.08 -374.22 2633256
79.940002 -25.129999 -374.39001 2893855
79.82 -24.99 -374.38 2436134
79.760002 -25.559999 -374.39001 2960164
80.349998 -26.52 -374.54999 2370088
80.330002 -33.169998 -374.45999 2040856
80.510002 -32.240002 -374.26001 2237472
80.5 -32.07 -374.20001 2237472
79.709999 -31.85 -374.04001 2763809
79.540001 -31.59 -373.95001 2107685
80.769997 -32.950001 -374.39999 2499871
79.800003 -31.629999 -373.98001 2763557
79.739998 -35.02 -374.22 2236956
80.019997 -34.959999 -374.23001 2369053
79.650002 -46.540001 -373.91 2500137
80.07 -44.25 -373.64001 2566436
79.550003 -45.889999 -373.66 2696996
79.900002 -45.91 -373.72 2762531
79.980003 -46.650002 -373.98999 2434600
80.160004 -46.560001 -373.97 2761762
79.879997 -46.470001 -373.89999 2630438
80.690002 -45.650002 -373.89999 2435104
80.879997 -45.91 -374.01001 2565152
81.029999 -45.599998 -374.04999 2435369
80.629997 -45.91 -373.89999 2106395
82.489998 -46.75 -374.5 2171683
82.75 -46.75 -374.45999 2499357
82.669998 -46.52 -374.51001 2171164
79.809998 -46.630001 -373.95999 2434344
79.870003 -46.799999 -374.04001 2368556
80.790001 -43.59 -373.92001 2960426
81.25 -42.740002 -374.17001 3024677
80.800003 -42.73 -374.07001 2631720
79.82 -81.019997 -372.60001 1711653
78.089996 -79.080002 -372.53 1842468
80.269997 -23.16 -374.89001 2305325
80.25 -24.33 -374.59 2435623
80.559998 -24.299999 -374.66 2827815
79.239998 -76.790001 -373.23001 1974560
81.709999 -78.580002 -373.32001 1844256
81.540001 -78.769997 -373.29999 1844258
81.760002 -78.849998 -373.39001 1843994
78.519997 -79.300003 -372.63 1973792
80.360001 -34.549999 -374.39999 2238756
79.790001 -81.389999 -372.51999 1907992
79.5 -81.489998 -372.38 1710358
79.779999 -81.699997 -372.48001 1907994
81.550003 -80.18 -373.26999 1712674
81.860001 -80.220001 -373.31 2368797
81.739998 -80 -373.34 1844002
80.75 -38.040001 -374.23001 2696225
80.760002 -37.84 -374.23001 2630936
80.470001 -82.599998 -372.76999 2171425
79.540001 -81.120003 -372.45001 1580838
80.68 -79.379997 -373.07001 1842454
80.489998 -79.830002 -372.98001 2104088
79.650002 -37.400002 -374.29001 2895149
81.339996 -83.43 -372.91 2237219
81.769997 -83.230003 -373.01001 2302752
81.279999 -83.129997 -372.97 1777954
80.68 -22.35 -374.94 2435877
80.559998 -22.51 -374.89999 2894632
80.830002 -22.469999 -374.97 2698020
80.25 -22.860001 -374.84 1845804
80.589996 -23 -374.92001 2697772
80.639999 -22.700001 -374.92001 2960428
82.080002 -24.129999 -374.91 2894121
82.139999 -23.73 -374.94 2501159
80.300003 -80.949997 -372.88 2172195
79.989998 -43.110001 -373.79999 2566696
80.019997 -46.16 -373.81 2958881
81.510002 -44.700001 -374.01001 2501161
81.389999 -45.68 -374.23001 2370595
81.620003 -45.310001 -374.26999 2108206
81.290001 -45.220001 -374.09 1780776
80.440002 -28.18 -374.87 2698535
80.309998 -28.1 -374.79999 2698535
79.050003 -29.129999 -374.35999 2434855
79.290001 -28.57 -374.26999 2566178
80.940002 -21.51 -374.85001 1844769
81.040001 -21.41 -374.84 2106143
80.980003 -22.85 -374.94 2435623
79.720001 -23.58 -374.78 3157031
79.839996 -27.91 -374.44 2632993
80.82 -32.57 -374.35999 2434084
79.25 -76.419998 -373.22 2039835
79.260002 -25.690001 -374.29999 2172962
79.400002 -25.540001 -374.32999 2631716
79.080002 -25.43 -374.23999 2631974
81.760002 -23.620001 -374.89001 2763815
79.839996 -76.410004 -373.32001 2171939
79.620003 -76.690002 -373.25 2040348
80.769997 -32.290001 -374.31 2237736
81.639999 -29.23 -374.98001 2632231
83 -26.43 -374.98001 2237216
82.580002 -26.51 -374.95001 2369317
82.830002 -26.860001 -374.95999 2369575
82.349998 -26.950001 -374.92999 2173213
82.18 -26.469999 -374.91 2697767
81.760002 -77.129997 -373.14001 2236446
81.57 -77 -373.14001 2171679
80.739998 -77.110001 -373.10999 2433566
81.150002 -31.65 -374.20001 2171686
81.209999 -31.84 -374.23999 2040355
80.010002 -32.889999 -374.41 2434861
82.239998 -32.25 -374.42999 1910303
82.5 -31.969999 -374.51001 2694436
82.150002 -31.950001 -374.42999 2432540
80.519997 -80.949997 -372.97 2368291
80.809998 -77.32 -373.04999 2236185
80.050003 -44.43 -373.69 2565663
80.760002 -78.989998 -373.12 1580826
81.059998 -79.239998 -373.17999 2039836
80.230003 -76.949997 -373.17999 1975590
82.110001 -43.990002 -374.04999 2696994
81.830002 -44.209999 -373.98001 2370083
82.139999 -44.23 -374.06 2697251
81.940002 -81.389999 -372.97 1778465
81.730003 -81.330002 -372.98999 1843226
81.68 -81.599998 -372.98999 1712160
81.199997 -81.470001 -372.98999 1581596
80.949997 -81.489998 -372.97 1777695
81 -81.779999 -372.92999 1581343
80.919998 -79.650002 -373.12 1974807
81.43 -86.660004 -373.31 2369574
81.610001 -86.730003 -373.35999 2369827
81.519997 -86.510002 -373.32999 2238507
79.18 -81.620003 -372.26999 1907223
84.480003 -33.869999 -374.91 1644820
84.690002 -33.389999 -375.04001 1842450
84.169998 -33.310001 -374.89001 1057305
84.669998 -82.480003 -373.57999 2566694
84.699997 -81.690002 -373.59 2696480
84.07 -82 -373.44 2959661
81.550003 -80.449997 -373.20999 2106657
81.279999 -80.32 -373.20001 1975329
82.550003 -43.57 -374.29999 2370086
82.379997 -43.869999 -374.17001 2566694
82.620003 -43.880001 -374.28 2435366
80.370003 -81.989998 -372.72 1910052
80.610001 -82.050003 -372.79999 1844260
80.550003 -81.790001 -372.82001 1712936
81.510002 -83.849998 -372.79001 1975590
81.760002 -83.889999 -372.81 2171939
81.779999 -83.720001 -372.85001 2171939
80.57 -43.709999 -373.82999 2960683
78.849998 -78.160004 -372.87 2236448
78.480003 -78.07 -372.73999 1841949
80.669998 -27.719999 -374.85001 2632750
80.769997 -27.83 -374.92001 2567467
79.889999 -28.530001 -374.45001 2565165
81.510002 -82.5 -373.01001 2172196
81.599998 -82.790001 -373.04999 2302754
81.910004 -82.540001 -373.10999 2041380
82.730003 -83.120003 -373.17999 2369583
82.860001 -83.559998 -373.12 2237729
82.300003 -86.230003 -373.42001 2829354
81.260002 -87.379997 -373.23999 2500134
81.120003 -86.18 -373.20001 2434854
81.370003 -86.160004 -373.23001 2369582
81.25 -85.970001 -373.17999 2500649
80.760002 -46.169998 -373.98001 2565411
82.059998 -27.68 -374.95001 2568496
82.199997 -28.049999 -374.95999 2896691
82.480003 -27.860001 -375.01999 3419951
82.629997 -35.220001 -374.45999 2105627
82.639999 -35.650002 -374.48001 1645852
82.959999 -35.43 -374.5 1842966
79.860001 -36.66 -374.16 2106134
80.660004 -27.629999 -374.81 2632750
82.639999 -36.23 -374.51999 1974304
79.629997 -34.139999 -374.32999 1910311
80.43 -36.18 -374.17999 2171431
80.230003 -35.950001 -374.16 2106144
82.660004 -26.01 -374.95001 2893354
81.449997 -33.700001 -374.42999 2369066
81.230003 -33.52 -374.41 2368031
78.730003 -33.060001 -374.19 2237981
80.760002 -34.580002 -374.45999 2238243
80.75 -41.09 -374.14001 2500648
80.669998 -40.77 -374.16 2435623
84.989998 -40.98 -375.04001 2173479
85.099998 -40.439999 -375.07999 2500387
84.540001 -40.540001 -374.98001 2697257
80.089996 -40.110001 -374.10999 2501415
84.169998 -44.060001 -374.70001 2107681
84.339996 -44.189999 -374.70001 1910567
84.419998 -44.040001 -374.76001 2107168
81.059998 -87.230003 -373.29001 2499616
81.489998 -84.43 -372.76999 2237480
81.75 -84.389999 -372.79001 2172454
80.32 -85.529999 -373.23999 2763303
82.489998 -85.040001 -373.07001 2304551
82.779999 -84.919998 -373.10001 2566182
82.489998 -84.720001 -373.01999 2172448
82.879997 -42.040001 -374.53 2566178
83.480003 -42.82 -374.67001 2698543
83.599998 -42.119999 -374.67999 2632745
80.169998 -42.84 -373.89001 2500901
80.32 -41.16 -374.04001 2108466
81.019997 -38.709999 -374.20999 2172969
80.940002 -38.759998 -374.17999 2631976
81.080002 -38.84 -374.20001 2631976
80.519997 -33.759998 -374.51999 1973793
80.970001 -25.059999 -374.59 1846055
81.639999 -46.610001 -374.32001 2303272
81.830002 -46.59 -374.41 2499622
81.709999 -46.299999 -374.38 2499619
80.089996 -35.630001 -374.17999 2171674
79.949997 -35.470001 -374.20001 2105887
80.360001 -36.720001 -374.23001 2107429
80.970001 -36.93 -374.29999 2302234
81.459999 -37.049999 -374.35001 2499360
81.370003 -36.57 -374.34 1515807
80.949997 -37.779999 -374.26999 2630945
80.919998 -38.009998 -374.26999 2761502
80.459999 -37.599998 -374.20999 2632483
80.239998 -37.720001 -374.20999 2698540
80.440002 -46.049999 -373.85999 2106654
80.330002 -46.200001 -373.87 2499608
80.290001 -37.25 -374.26999 2696482
81.730003 -36.080002 -374.39999 1974817
81.099998 -46.860001 -374.13 2041116
80.57 -37.07 -374.26999 2434331
80.629997 -36.779999 -374.26001 2303265
81.080002 -37.32 -374.29999 2172972
80.910004 -37.540001 -374.26999 2172711
82.029999 -21.139999 -375.26001 1253408
80 -37.849998 -374.26001 2830130
80.519997 -22.25 -374.88 2566951
80.279999 -22.34 -374.79001 2828588
80.449997 -22.41 -374.85999 3156524
80.580002 -23.799999 -374.91 2697769
80.339996 -23.780001 -374.88 2632233
81.360001 -24.370001 -374.76999 2895151
80.860001 -24.43 -374.67001 2958639
81.07 -24.58 -374.67001 2894638
80.120003 -24.950001 -374.42999 3352616
80.199997 -25.219999 -374.42999 2697003
81.279999 -23.73 -374.88 2894375
81.459999 -23.459999 -374.88 2763044
81.059998 -23.559999 -374.91 2763051
80.230003 -21.709999 -374.66 2303012
79.980003 -21.43 -374.48999 2434595
79.739998 -21.76 -374.47 2435366
80.379997 -20.799999 -374.47 1712932
80.349998 -22.57 -374.82999 2763055
81.790001 -20.99 -375.07999 1646879
81.93 -20.719999 -375.13 1776926
81.610001 -20.65 -374.92999 2170391
80.370003 -22.15 -374.81 2828588
80.290001 -21.08 -374.51001 2040349
80.269997 -21.440001 -374.60001 2369058
80.489998 -21.549999 -374.72 2106660
80.699997 -21.58 -374.81 1975843
82.610001 -28.280001 -375 2896176
82.980003 -28.4 -375.06 2961199
82.839996 -28.08 -375.04999 2959405
80.389999 -81.349998 -372.85001 1975333
80.239998 -81.220001 -372.79999 2106661
81.150002 -80.940002 -373.07999 2304553
83.43 -29.43 -374.98001 2435880
83.57 -29.790001 -374.95999 1583649
81.290001 -81.82 -372.97 1646372
80.760002 -31.459999 -374.07999 2435109
80.910004 -31.610001 -374.13 2435109
80.5 -35.849998 -374.17001 2040093
81.360001 -29.32 -375.03 2566696
81.199997 -29.15 -374.95001 2303526
81.639999 -28.66 -374.91 3157034
81.919998 -79.980003 -373.39001 2499871
82.019997 -79.839996 -373.45001 2304294
81.839996 -79.82 -373.41 1975588
81.160004 -81.209999 -373.03 1975077
81.379997 -81.220001 -373.01999 1713698
81.449997 -81 -373.06 2107168
79.18 -77.620003 -373.01999 1712156
78.970001 -77.57 -373.01001 1515803
78.940002 -77.809998 -372.94 1581341
81.209999 -77.019997 -373.14999 2040605
81.010002 -76.919998 -373.19 2302745
81.029999 -77.160004 -373.10999 2891290
83.160004 -32.560001 -374.64001 2827565
82.690002 -32.830002 -374.53 2172721
83.639999 -81.32 -373.25 2960941
83.169998 -81.120003 -373.12 2042148
83.169998 -81.400002 -373.14001 2566183
80.400002 -81.160004 -372.89001 2434601
80.779999 -37.66 -374.23999 2500382
82.199997 -38.200001 -374.54001 2500647
82.059998 -37.75 -374.5 2827816
81.639999 -37.990002 -374.42001 2500391
83.760002 -40.18 -374.76001 2566183
83.900002 -40.189999 -374.81 2565925
83.910004 -40.049999 -374.81 2565925
81.550003 -37.52 -374.39001 2106406
81.790001 -85.220001 -373.03 2369832
81.629997 -84.870003 -372.89999 2369318
81.440002 -83.660004 -372.84 1844260
81.790001 -83.489998 -372.92999 2106144
82.010002 -84.349998 -372.84 2302755
81.980003 -84.580002 -372.87 2238246
82.870003 -81.699997 -373.17999 2172964
82.959999 -81.559998 -373.14999 2172964
82.690002 -81.690002 -373.14001 1845028
81.870003 -82.970001 -373.07999 2237725
80.839996 -38.57 -374.19 1713959
80.760002 -38.779999 -374.14001 2566188
80.150002 -45.849998 -373.75 2566180
81.370003 -46.490002 -374.20001 2171937
81.690002 -44.880001 -374.14999 2369321
81.440002 -44.939999 -374.07001 2304298
81.529999 -46.369999 -374.29001 2368550
81.379997 -46.130001 -374.23001 2237987
81.779999 -44.529999 -374.03 2436133
81.809998 -34.93 -374.47 2106406
80.690002 -38.25 -374.20001 2237477
80.730003 -37.220001 -374.26999 1910306
79.93 -37.380001 -374.29001 2566439
80.949997 -40.57 -374.20001 2238762
81.18 -33.139999 -374.38 2564377
79.769997 -34.07 -374.39999 2040615
80.900002 -34.330002 -374.53 2762535
81.330002 -34.330002 -374.53 1845284
81.120003 -34.130001 -374.51999 2435365
80.629997 -20.26 -374.45999 1383962
81.550003 -20.200001 -374.87 1711393
81.830002 -20.139999 -375.04001 1777441
81.339996 -33.93 -374.48001 2370085
80.300003 -40.77 -374.12 2303020
81.059998 -86.809998 -373.25 2500388
80.150002 -79.110001 -372.98999 1776412
82.379997 -80.919998 -373.03 2239530
80.25 -78.489998 -373.04001 1777172
82.230003 -79.779999 -373.51001 2631465
80.18 -44.139999 -373.64999 2566436
81.18 -44.259998 -373.85001 2895152
80.900002 -44.200001 -373.82001 3026220
80.970001 -44.459999 -373.82001 3090730
81.559998 -45.060001 -374.17001 2304298
81.480003 -38.330002 -374.38 2172712
81.830002 -38.759998 -374.39999 2501168
81.900002 -38.389999 -374.45001 2238761
81.849998 -20.52 -375.07001 1908506
84.029999 -43.290001 -374.78 2567467
83.550003 -43.490002 -374.66 2369833
83.900002 -43.810001 -374.70001 2632486
82.449997 -40.470001 -374.39001 2631462
80.260002 -39.849998 -374.10999 2369834
81.18 -32.68 -374.35001 2564383
81.709999 -32.799999 -374.37 2434850
81.160004 -34.549999 -374.48999 2172450
81.449997 -34.75 -374.47 2171418
81.559998 -34.509998 -374.51999 2106146
81.269997 -86.720001 -373.26999 2434085
81.449997 -86.800003 -373.31 2369827
81.059998 -86.400002 -373.22 2369057
80.800003 -86.480003 -373.19 2303781
81.040001 -86.610001 -373.22 2434850
80.860001 -22.129999 -375.01001 2304804
81.18 -23.290001 -374.91 2566180
81.019997 -22.27 -375.04999 2435362
81.709999 -79.379997 -373.41 1844009
82.059998 -76.830002 -373.26001 2040610
82.279999 -76.690002 -373.38 1910052
82.040001 -76.639999 -373.29001 2040357
81.540001 -78.510002 -373.23999 1909541
81.599998 -78.32 -373.20999 1974304
81.379997 -78.330002 -373.14999 1711904
82.230003 -23.41 -374.92001 2696225
80.760002 -23.66 -374.94 2763046
80.769997 -24.66 -374.59 2697772
81.029999 -24.799999 -374.63 2566955
80.510002 -24.120001 -374.73999 2631969
81.139999 -21.059999 -374.73999 2105882
80.150002 -21.27 -374.51001 2498845
81.209999 -21.879999 -375.10999 2172199
81 -21.75 -374.98001 2172966
80.790001 -21.93 -374.95999 2172965
80.879997 -21.620001 -374.88 2041635
81.089996 -21.58 -374.92999 2172449
80.029999 -27.66 -374.60001 2828848
78.970001 -24.129999 -374.54001 2435881
80.75 -24.9 -374.54999 2370341
80.089996 -85.860001 -373.16 2500389
80.68 -34.060001 -374.54001 2894123
81.169998 -25.940001 -374.70999 2501158
81 -20.73 -374.60001 1909284
81.18 -20.83 -374.69 1907997
81.239998 -20.610001 -374.69 2169629
83.730003 -22.209999 -375.17999 1712668
83.669998 -22.360001 -375.17001 1843233
84.529999 -27.91 -375.14999 2107682
84.18 -27.940001 -375.07999 2500899
84.269997 -28.209999 -375.13 2369573
80.980003 -26.219999 -374.67999 2370343
79.629997 -27.93 -374.29001 2238243
81.550003 -27.09 -374.78 2697751
81.419998 -27.309999 -374.78 2829607
79.620003 -25.799999 -374.39001 2893090
80.129997 -46.82 -374.07001 2238755
83.010002 -35.009998 -374.5 1777697
81.080002 -77.339996 -373.06 2301465
81.510002 -29.6 -375.04999 2567464
83.449997 -82.300003 -373.37 2369830
82.879997 -82.389999 -373.29999 2369319
83.110001 -82.550003 -373.32999 2434857
81.190002 -29.57 -375.07999 2764071
81.160004 -45.959999 -374.13 2565153
83.970001 -31.52 -374.76001 2629412
84.07 -31.83 -374.81 2499885
84.25 -31.6 -374.79999 2303783
81.839996 -28.74 -374.89001 2894891
81.730003 -26.540001 -374.82999 3091249
81.540001 -26.25 -374.79999 2895153
81.410004 -26.67 -374.76001 2829103
80.269997 -35.700001 -374.17001 2171674
82.540001 -34.080002 -374.56 2565158
84.470001 -39.16 -375.10001 2172193
84.360001 -39.529999 -375 2369574
84.75 -39.41 -375.14001 2238492
82.169998 -78.370003 -373.44 2171934
82.160004 -78.010002 -373.39999 2303782
81.889999 -78.330002 -373.32999 2040865
80.769997 -78.599998 -373.10999 1582370
81.059998 -78.830002 -373.17999 1580831
81.379997 -78 -373.07999 1908508
81.690002 -77.809998 -373.14001 1842975
80.919998 -27.26 -374.72 2632745
80.419998 -27.030001 -374.62 2696992
80.860001 -38.18 -374.25 2434595
80.959999 -38.400002 -374.25 2041892
80.980003 -38.93 -374.17001 2631976
80.580002 -36.470001 -374.22 2238248
82.239998 -42.18 -374.42999 2369313
81.639999 -41.709999 -374.31 2304036
81.559998 -76.809998 -373.19 2040865
81.410004 -76.940002 -373.16 2171679
80.669998 -77.510002 -373.01001 2040346
81.239998 -26.25 -374.75 2501420
81.089996 -26.57 -374.70999 2436137
81.860001 -26.870001 -374.85001 3091245
84.110001 -26.27 -375.09 2434598
84.260002 -26.02 -375.10999 2434594
84.040001 -25.870001 -375.09 2369319
81.720001 -28.52 -374.89999 3026732
81.919998 -28.52 -374.89001 2632747
81.699997 -28.290001 -374.91 3026477
80.769997 -39.02 -374.12 2501155
83.300003 -35.310001 -374.57001 1646365
83.169998 -35.610001 -374.57001 1777178
83.440002 -35.630001 -374.62 1318681
80 -35.240002 -374.20999 2564648
80.629997 -33.52 -374.45999 1646620
80.480003 -33.380001 -374.45999 1450527
81.779999 -34.669998 -374.5 2040862
80.510002 -33.189999 -374.45001 1844258
82.660004 -32.360001 -374.51999 2303262
82.239998 -32.610001 -374.42999 2108456
84.169998 -35.779999 -374.70999 1645079
83.790001 -35.700001 -374.67001 1580047
83.889999 -36.080002 -374.70999 1973011
82.589996 -23.440001 -374.98999 2500124
81.300003 -22.99 -374.92001 2238751
81.830002 -29.48 -374.92001 2237730
81.870003 -29.709999 -374.88 2434851
81.989998 -29.6 -374.82001 2172450
82.169998 -29.860001 -374.70999 2500638
82.040001 -30.190001 -374.73999 2369068
82.230003 -30.24 -374.70001 1844512
80.260002 -32.439999 -374.29001 1845787
81.800003 -76.860001 -373.17999 2105888
81.709999 -76.730003 -373.20999 2040865
81.870003 -78.019997 -373.26001 2040615
81.720001 -31.33 -374.44 2236957
81.620003 -31.620001 -374.35001 2171165
81.839996 -31.57 -374.42001 1843740
82.690002 -79.919998 -373.51999 2632489
82.690002 -80.199997 -373.42999 2895148
83.010002 -80.230003 -373.45001 2631453
81.480003 -81.410004 -373 1777946
81.010002 -82.089996 -372.89999 1777955
80.290001 -82.93 -372.78 2106400
80.18 -83.199997 -372.79999 2105886
80.510002 -83.050003 -372.84 2040612
81.089996 -78.18 -373.07001 1908503
83.480003 -26.5 -375.03 2368795
83.300003 -25.99 -375.01999 2566443
80.889999 -77.440002 -373.03 2236185
80.449997 -80.690002 -372.97 1975073
82 -77.050003 -373.23001 2105374
81.910004 -76.919998 -373.19 2105888
81.889999 -32.389999 -374.37 2630944
81.489998 -32.400002 -374.34 1844254
81.730003 -33.810001 -374.47 2501162
82.760002 -21.76 -375.32001 2236948
82.540001 -21.809999 -375.32999 1843744
81.639999 -82.050003 -373.01001 2237737
81.68 -20.379999 -374.97 2105373
81.040001 -20.91 -374.67001 1909279
82.080002 -20.91 -375.23999 1777954
82.209999 -86.5 -373.48001 2566439
81.839996 -86.550003 -373.41 2303779
82.099998 -85.559998 -373.17001 2501418
82.220001 -84.800003 -372.97 2303783
83.510002 -43.919998 -374.59 2566691
83.199997 -43.639999 -374.53 2238242
82.050003 -43.540001 -374.14001 2697519
81.809998 -43.450001 -374.12 2697768
81.839996 -43.790001 -374.01999 2435873
82.519997 -43.150002 -374.39001 2501929
82.169998 -43.110001 -374.29999 2435624
82.279999 -43.400002 -374.25 2631466
80.629997 -44.529999 -373.76999 2304551
82.459999 -44.060001 -374.20001 2369830
82.620003 -44.110001 -374.26999 2566693
81.110001 -43.75 -373.94 2501417
81.43 -44 -373.92001 2370603
81.489998 -44.380001 -373.92001 2829354
