# .PCD v0.7 - Point Cloud Data file format
VERSION 0.7
FIELDS x y z rgba
SIZE 4 4 4 4
TYPE F F F U
COUNT 1 1 1 1
WIDTH 1326
HEIGHT 1
VIEWPOINT 0 0 0 1 0 0 0
POINTS 1326
DATA ascii
107.09 -47.950001 -372.23999 1776408
107.38 -47.790001 -372.25 2038811
105.5 -48.720001 -372.75 1646627
107.28 -48.02 -372.64001 1907999
107.17 -48.27 -372.92001 1907990
107.49 -48.259998 -373.25 1776914
107.25 -48.75 -373.59 1907990
106.88 -48.900002 -373.60001 1712151
108.46 -47.48 -372.42001 1775639
108.24 -47.529999 -372.39999 2038040
108.54 -47.43 -372.20001 1841171
108.37 -47.619999 -372.95001 1776415
109.56 -46.900002 -371.72 1250836
109.66 -46.860001 -371.84 1250836
109.76 -46.73 -372.23999 1579283
110.65 -76.209999 -369 7431513
111.1 -45.73 -362.51001 2106658
111.89 -45.970001 -361.44 3158313
112.53 -45.419998 -362.10999 2369057
112.71 -45.299999 -362.26999 2565923
112.73 -45.34 -362.14001 2631971
115.75 -44.869999 -373.25 1316888
118.4 -77.669998 -370.25 7106157
120.76 -43.18 -373.25 1841423
122.64 -42.790001 -373.53 1382677
122.75 -42.75 -373.51001 1513745
123.11 -42.709999 -363.64001 1450528
124.7 -52.830002 -354.82999 5071206
130.12 -70.889999 -353.89999 10262667
129.64 -70.690002 -353.70999 10853522
126.75 -79.75 -370.75 9473416
128.52 -41.380001 -367.01999 2237728
128.17 -50.299999 -355.89001 5198926
129.75 -69.980003 -353.16 8682614
130.17999 -70.110001 -353.25 8222578
129.42 -41.169998 -367.10001 1842982
128.92999 -42.16 -374.03 1515804
128.97 -41.689999 -365.26999 1841434
130.35001 -41.779999 -374.01999 2106400
129.78 -41.740002 -365.13 1382680
129.62 -41.07 -367.31 1710364
129.84 -41.900002 -364.79999 1907487
130.5 -41.580002 -374.51001 2301985
130.25 -41.700001 -374.75 1974300
131.73 -41.189999 -374.07001 1907218
130.60001 -41.02 -368.64999 1971727
132.42999 -65.309998 -352.29001 4075817
135.52 -63.189999 -354.45001 7959147
132.48 -71.610001 -354.62 7433571
135.46001 -66.970001 -353.37 2038813
138.97 -63.700001 -355.35001 9804176
139.75 -41.32 -375.32001 2368033
139.69 -41.330002 -375.42001 2368033
140.72 -68.389999 -355.12 5325108
141.42 -68.470001 -355.23999 5984325
140.71001 -65.519997 -355.59 6970968
140.86 -65.470001 -355.67999 6774100
140.81 -65.379997 -355.72 6445907
141.34 -67.559998 -354.85999 8222049
141.53 -67.610001 -354.94 8352355
143.42999 -67.230003 -355.89999 10203809
143.87 -67.980003 -355.82999 9995896
143.64 -68 -355.72 9535098
143.2 -68.900002 -355.92001 5917762
146.19 -69.900002 -357.17999 6971473
148.55 -66.830002 -357.91 9143430
149.88 -70.440002 -358.48001 8553334
151.02 -70.589996 -359.10999 7630702
150.5 -68.110001 -358.57999 11513008
150.88 -69.889999 -358.78 9275001
151.03999 -70.010002 -358.89001 10000765
153.49001 -71.510002 -360.57999 6905422
155.75 -80.739998 -378.04999 7303533
161.45 -39.720001 -378.16 3155997
161.52 -80.269997 -379.25 7566449
161.62 -39.759998 -378.37 2695966
168 -79.970001 -379.25 7237480
167.25 -38.68 -380.25 2235669
169.06 -38.360001 -379.97 2436133
169.66 -38.200001 -380.20999 3092009
169.55 -38.200001 -380.39999 2697770
170.61 -37.630001 -381.17001 3092266
170.86 -37.509998 -381.10999 4079130
170.74001 -37.650002 -380.95999 3490877
172.24001 -37.009998 -381.07001 4480088
171.37 -37.360001 -380.92999 4345438
173.34 -38.189999 -380.07001 5987159
173.53999 -36.209999 -382.10001 5924193
173.38 -35.75 -382.45001 3093552
173.47 -36.299999 -382.04001 6055491
173.82001 -36.25 -381.67999 7241075
173.75 -36.240002 -381.76001 7241075
174 -77.980003 -382.25 6908517
174.24001 -36.43 -381.25 8487035
174.39999 -36.040001 -382.32999 5926505
173.53 -35.509998 -382.75 3289895
173.41 -35.389999 -382.64999 3092012
174.47 -36.130001 -382.98001 5263697
174.34 -78.279999 -381.22 7303530
175.64 -35.650002 -383.25 6972268
176.21001 -35.689999 -384.17999 4342081
176.25 -35.389999 -383.23999 5922395
175.89 -39.049999 -379.67999 2764594
175.83 -39.139999 -379.38 2633521
177.27 -35.400002 -382.57001 6315875
177.25 -35.689999 -382.48999 7303540
178.49001 -38.150002 -382.12 3619895
178.46001 -37.98 -382.17999 3619895
177.75 -35.439999 -384.75 4472893
177.92999 -35.259998 -384.75 5193534
178.92 -38.189999 -382.39999 3946806
178.72 -34.740002 -384.75 4669508
178.72 -34.669998 -384.72 3816004
179.78 -39.25 -381.70001 3289902
179.39999 -35.549999 -383.23001 4212291
181.59 -33.57 -384.38 4802888
181.06 -34.490002 -384.14001 5132109
182.06 -38.360001 -383.66 2699044
181.73 -34.369999 -384.35001 4671293
181.69 -33.02 -385.82001 4867148
181.92 -32.900002 -385.98999 4669507
181.25999 -33.27 -385.25 6059097
182.19 -37.77 -384.12 2895914
182.57001 -32.669998 -385.85001 4014655
182.46001 -32.720001 -385.87 4014655
181.75999 -31.26 -385.78 4080461
182.95 -33.98 -384.95001 3947834
183.31 -33.720001 -385.10999 3815990
183.12 -33.580002 -385.01999 3684920
182.84 -32.68 -385.31 3948346
182.75 -76.379997 -385.25 7105642
183.95 -37.689999 -385.07999 2763301
183.89999 -37.779999 -384.98999 2697510
183.17 -32.490002 -385.54999 3751227
183.24001 -32.419998 -385.75 3619638
185.53999 -38.400002 -385.29001 2566688
184.45 -32.810001 -385.5 3223339
185.42999 -39.259998 -384.29001 3417899
184.97 -37.16 -385.98999 2501930
185.53999 -38.639999 -385.07999 2303005
183.75999 -37.669998 -385 2632228
185.69 -39.040001 -384.69 2631464
185.89999 -39.060001 -384.70001 2630952
187.02 -36.509998 -387.48001 2960940
186.64999 -36.5 -387.29001 3026478
186.64 -32.380001 -386.98001 2238238
186.84 -32.5 -387.09 2172451
186.98 -38.02 -386.28 2435366
187.91 -38.419998 -386.41 2370336
187.25 -30.209999 -391.98001 1841945
187.7 -31.75 -389.76001 2368033
188.17 -31.129999 -388.70001 2172444
187.25 -31 -390.56 1711376
188.03 -31.42 -389.42999 1645592
188.06 -30.1 -391.67999 1447951
188.77 -30.17 -392.39001 1776403
188.91 -30.120001 -390.89001 1907226
188.19 -31.33 -389.37 1645591
188.10001 -31.4 -389.51999 1645592
189.28999 -32.27 -388.62 2302237
188.78999 -30.09 -392.16 1776150
189.06 -29.950001 -392.07001 1906968
189.14 -29.780001 -391.19 1513490
189.23 -29.92 -392.25 1972501
189.22 -30.07 -390.76999 1907222
189.36 -30.860001 -388.48999 2827294
189.39999 -30.709999 -388.92001 2565401
190.11 -30.280001 -390.48999 1843226
189.92999 -30.5 -390.35999 1776921
190 -30.690001 -389.73001 2303009
190.11 -30.58 -389.85999 2236960
189.45 -30.82 -389.35001 2499608
189.82001 -35.790001 -389.29001 2762019
190.41 -30.25 -393.75 1710361
189.78 -30.18 -390.60001 1776664
191.09 -28.92 -391 2235159
190.37 -35.529999 -389.78 2696228
190.25 -29.440001 -391.76001 1841434
190.38 -29.440001 -391.76999 1775897
190.44 -30.4 -389.67001 2499109
190.28 -29.35 -391.56 1580056
190.7 -29.690001 -390.79001 1907994
189.99001 -30.559999 -390.20999 1777178
190.07001 -30.549999 -390.07999 2236701
189.98 -34.040001 -389.66 2631199
190.67 -29.209999 -390.64999 1908759
190.14 -30.15 -393.12 1775905
191.78 -28.860001 -390.32999 2237466
191.74001 -35.32 -390.69 3090217
191.78999 -40.299999 -385.16 3222813
191.77 -29.049999 -390.35999 2303263
191.55 -30.6 -389.92999 2434603
192.37 -30.65 -390.51001 2172457
193.66 -29.440001 -390.79001 2894888
193.36 -29.360001 -390.72 2566953
193.50999 -29.58 -390.76999 2632743
193.45 -40.330002 -386.26001 3222044
193.72 -72.389999 -375.92001 4010537
193.59 -72.32 -375.75 3814439
192.8 -72.029999 -375.07001 4339497
193.39 -30.059999 -390.89001 2565407
194.05 -31.540001 -391.64999 2828578
192.94 -40.509998 -384.98999 2500897
194.57001 -40.400002 -386.54999 3156510
195.06 -40.41 -386.89001 2959395
194.32001 -72.900002 -377.14999 4012589
195.42 -69.309998 -375.44 6575698
195.92 -72 -376.56 4010535
194.72 -71.25 -375.48001 4536628
196.11 -69.669998 -375.95001 6050118
196.19 -40.080002 -389.25 2433834
195.85001 -40.009998 -389.10001 2631198
197.21001 -40.330002 -389.41 2695966
195.75 -28.889999 -391.75 0
197.74001 -71.699997 -377.20001 4142120
196.39 -28.75 -392.16 3092527
196.97 -40.290001 -389.45999 2497310
197.37 -71.699997 -376.97 4207915
197.17999 -71.730003 -376.88 4272936
197.25 -73.769997 -388.75 5719093
197.64999 -73.419998 -387.91 6050367
197.61 -70.199997 -376.59 4274737
197.62 -34.549999 -393.23999 3356711
198.12 -69.849998 -376.75 4996401
199.2 -69.25 -377 6575946
199.3 -29.85 -393.14001 2830121
199.14999 -29.709999 -393.07001 2633773
199.23 -71.160004 -377.23001 4273195
198.89 -69.370003 -376.92001 5785141
200.25 -29.26 -393.35999 3223853
200.21001 -32.02 -393.29999 2959662
200.08 -71.040001 -377.64999 4404521
199.52 -69.110001 -377.07001 5527368
202.48 -40.110001 -391.07001 1713178
200.45 -29.59 -393.41 3288365
200.50999 -70.989998 -377.79999 4272925
200.87 -70.959999 -377.92001 4273190
199.8 -39.389999 -393.03 3883065
201.75999 -33.259998 -393.39999 3620407
201.53999 -33.25 -393.34 4145461
201.56 -39.43 -393.35001 3880761
201.06 -31.26 -394.35999 2565655
201.33 -30.24 -394.31 2172961
201.38 -31.01 -395.10001 1976613
201.52 -31.75 -394.98999 1844514
201.74001 -31.75 -395.23999 1975327
201.56 -31.65 -395.07001 1844514
201.77 -31.74 -395.23999 1910049
201.8 -31.75 -395.25 1910049
201.25 -69.110001 -377.63 5983547
201.87 -40.029999 -393.32999 3026221
201.31 -69.690002 -377.57999 4339491
203.19 -68.82 -378.23001 5719353
202.2 -70.839996 -378.29001 4207138
204.32001 -67.480003 -378.22 5061687
202.71001 -68.769997 -378.13 5916481
205.35001 -68.949997 -378.89001 4405289
205.28 -68.739998 -378.92999 4472109
204.12 -70 -378.29999 4469544
204.53 -70.029999 -378.44 4666410
203.28999 -37.799999 -393.54001 1974814
203.61 -37.860001 -393.57999 2828331
203.59 -36.950001 -393.67999 2761497
203.25999 -68.379997 -378.28 6377536
203.14999 -68.440002 -378.25 6443846
205.08 -67.620003 -378.67001 5653815
205.57001 -70.709999 -380.78 4602408
203.82001 -70.730003 -379.23999 4273441
205.62 -68.769997 -379.01001 4406058
204.56 -68.470001 -378.70999 5195316
204.39 -72.879997 -389.26999 5061939
205.64999 -40.259998 -392.82001 3287076
204.17 -72.580002 -388.28 5523767
205.85001 -40.25 -392.82999 2632997
205.77 -40.23 -392.92999 2632997
205.48 -35.57 -393.32001 2697256
206.3 -70.309998 -379.29001 4470317
206.17999 -37.869999 -393.70001 2961707
205.78 -37.5 -393.76999 2634284
206.08 -37.709999 -393.73001 2962216
205.25 -35.75 -393.26999 2829613
206.34 -68.389999 -379.28 5194550
206.75999 -39.049999 -393.95999 4078389
207.33 -38.57 -394.22 3025962
207.49001 -38.470001 -394.32999 3090730
207.24001 -38.419998 -394.20001 2763308
206.55 -40.049999 -393.20001 2567975
207.74001 -67.800003 -379.89001 5589306
206.03 -39.48 -393.76999 3160374
206.74001 -38.779999 -393.92999 3813945
207.14 -38.259998 -394.20999 2697772
207.47 -37.709999 -394.92999 2369058
207.64999 -70.260002 -380.06 4404778
207.06 -39.349998 -394.03 4078906
208.13 -38.900002 -394.60001 3420722
208.38 -38.98 -394.69 4080190
206.41 -68.220001 -379.32999 5391920
208.8 -37.630001 -395.26999 1975070
207.85001 -37.740002 -395.29001 2040864
209.05 -39.299999 -394.79001 2699309
208.58 -38.740002 -394.78 4144952
208.71001 -39.48 -394.32999 2960424
210 -67.639999 -380.75 5523766
209 -72.050003 -392.25 4337956
209.25 -72.029999 -392.25 4600868
209.23 -38.240002 -394.97 2632743
209.77 -38.75 -395.48001 2566691
209.23 -38.720001 -394.94 2830382
210.08 -69.089996 -380.39001 4076586
209.81 -69.120003 -380.29001 4337952
210.42999 -68.43 -380.67999 4667949
210.92 -39.68 -393.97 2172188
209.94 -68.410004 -380.48999 4733999
210.67999 -68.300003 -380.82999 4930607
210.83 -68.370003 -380.89001 4799021
210.89 -68.239998 -380.95999 4930348
211.36 -40 -393.35999 2304287
211.02 -39.540001 -394.87 2894118
210.53 -39.580002 -394.84 2697252
211.10001 -39.48 -394 1778205
211.89 -69.699997 -382.42999 4601384
210.66 -68.510002 -380.76999 4733483
211.33 -38.950001 -394.26001 2368033
211.28 -39.240002 -394.5 2434085
211.36 -39.009998 -394.37 2368033
213.53 -40.279999 -392.48999 3682862
212.2 -69.650002 -382.37 4340264
213.28999 -68.860001 -382.09 4142125
212.08 -38.82 -394.04999 3026225
212.46001 -38.610001 -394.20001 3420204
212.41 -38.490002 -394.20999 2632743
213.35001 -40.369999 -391.82999 2040858
213.58 -67.870003 -382.39001 5128757
213.57001 -39.830002 -393.92001 1843232
214.8 -40.599998 -386.73999 1974035
212.94 -68.010002 -382.10999 4604206
214.17999 -39.849998 -394.01001 2368797
213.41 -38.360001 -394.45999 2763565
214.97 -40.009998 -393.73001 2565669
213.98 -67.699997 -382.57999 4931127
214.25 -38.25 -394.89001 3091760
214.14999 -67.349998 -382.72 4274742
214.84 -69.339996 -384.63 4799276
214.31 -40.279999 -392.54999 2565151
215.12 -68.080002 -383.07999 5457207
215.24001 -68.290001 -383.12 5720376
214.49001 -38.75 -394.98001 2964274
214.55 -66.760002 -382.64999 5789008
215.55 -69.18 -384.64001 5127985
215.50999 -69.18 -384.42999 5127985
215.75999 -71.18 -391.23999 5063478
216.33 -67.449997 -383.76001 4800054
216.35001 -68.309998 -383.78 5721919
215.5 -38.93 -394.76001 2963511
215.74001 -39.349998 -394.63 3289901
216.28999 -39.400002 -394.78 2829089
216.22 -39.529999 -394.69 3158056
217.00999 -68.910004 -385.32001 5061932
216.19 -40.25 -390.67001 2303014
216.24001 -68.220001 -383.69 5721919
216.58 -66.309998 -383.26001 7103576
216.94 -39.98 -394.03 2368031
216.5 -39.98 -394.03 2039072
217.25 -38.98 -395.25 2302750
217.64999 -68.230003 -384.69 5721662
217.85001 -68.68 -385.20999 4801077
217.77 -70.620003 -391.28 5327156
218.83 -69.220001 -388.48999 6116670
217.95 -68.120003 -384.87 5722433
217.52 -39.849998 -394.66 2961210
218.38 -68.059998 -385.16 5788227
218.64 -66.690002 -384.75 6116933
218.67999 -70.339996 -390.76001 5918788
219.17999 -39.77 -395.07001 2698794
219.16 -39.889999 -394.88 2763816
219.33 -67.790001 -385.60001 5853757
219.27 -67.620003 -385.51999 5919809
218.82001 -70.260002 -390.57001 5918783
219.23 -70.209999 -391.14999 5919297
219.17999 -70.230003 -391.23999 5919297
219.12 -68.339996 -385.95001 5260342
219.81 -67.800003 -385.82999 5854280
221.02 -39.990002 -395.23001 2367004
221.53999 -68.059998 -387.63 5658443
220.74001 -67.510002 -386.20999 6051914
221.77 -68.040001 -387.85999 5723723
222.25 -40.049999 -396.25 2432550
221.03999 -68.089996 -387.17999 5853509
221.45 -67.669998 -386.82999 6184013
221.72 -67.660004 -387.03 6052174
223.08 -68.779999 -393.85001 7038813
226.75 -40.299999 -397.25 2171416
225.25 -68.790001 -395.25 6053980
225.25 -39.93 -397.75 1906454
226.25999 -40.040001 -397.73999 1318936
226.39999 -41.790001 -388.37 3092789
226.28999 -68.459999 -395.23999 6447696
228.60001 -67.519997 -391.44 6382431
227.67999 -68.220001 -394.22 6446672
227.12 -41.610001 -388.81 2633264
228.27 -68.419998 -395.20999 6710112
228.25 -68.959999 -396.75 4606278
228.11 -40.169998 -397.10001 1645587
228.00999 -68.470001 -395.14999 6579297
228.77 -68.610001 -396.23999 5856072
228.64 -68.730003 -396.26001 5460296
229.73 -40.599998 -395.35999 2894111
231.53999 -67.809998 -394.12 5788239
230.74001 -40.48 -396.64001 2301712
231.38 -40.240002 -399.03 2037783
231.25999 -40.240002 -398.81 2037783
232.36 -40.709999 -398.19 2106136
233.50999 -67.660004 -396.75 4606530
234.25 -67.529999 -397.26001 4276023
233.98 -40.25 -400 2368033
235.25 -67.559998 -395.75 5326916
236.00999 -40.240002 -400.37 2368033
236.25 -66.940002 -394.91 5723731
237.25 -67.400002 -396.75 5260091
237.95 -67.459999 -397.03 4670002
238.42 -41.029999 -400.20001 2172443
237.69 -40.790001 -400.97 2171934
237.74001 -67.860001 -397.75 4011828
238.59 -67.169998 -396.44 4802880
239.00999 -67.629997 -396.85999 4670008
240.03999 -41.119999 -400.39999 3090982
240.3 -41.130001 -400.57999 2893343
240.10001 -41.099998 -400.60001 3090982
239.37 -40.599998 -400.97 3028791
240.32001 -40.82 -401.32999 3354143
240.42 -40.939999 -401.25 2501410
240.25999 -41.169998 -400.34 2565160
239.98 -41.16 -400.12 3286825
240.53 -70.089996 -397.73001 3878446
240.38 -68.419998 -397.31 4538427
240.38 -68.610001 -397.39999 4079666
242.23 -68.059998 -397.88 5592906
242.42 -41.220001 -400.98999 2105880
242.59 -41.240002 -401.09 2105880
242.10001 -70.82 -397.95001 4144694
242.72 -73.300003 -399.12 3814956
243.46001 -72.830002 -398.69 3946286
243.53999 -65.949997 -397.70999 6314577
244.25999 -41.41 -401.28 1907740
244.98 -42.200001 -395.35999 3686189
243.38 -67.540001 -398.39001 5458487
243.24001 -43.389999 -393.13 3948862
243.00999 -72.190002 -398.26001 4143665
244.75 -41.490002 -401.39999 2039579
244.72 -41.200001 -401.95999 2632744
246.31 -41.73 -401.25 2894114
246.5 -42.07 -396.42999 3091487
246.75999 -42.18 -396.31 2958623
245.50999 -65.029999 -398.20001 6907993
245.61 -65.07 -398.28 6907993
245.75 -75 -399.16 4340021
246.21001 -42.040001 -396.23999 3157538
246.75 -76 -399.67001 4276022
246.75 -76.25 -399.69 4473142
247.38 -76.25 -399.75 4276537
247.13 -67.339996 -400.06 4474177
249.21001 -41.619999 -401.95001 2630943
248.94 -41.59 -402.41 1843740
249.75 -41.740002 -402.75 2368033
249.75 -41.75 -402.75 2368033
250.25 -78.57 -401.26001 5257523
251.09 -41.77 -401.81 2503211
251.56 -41.75 -402.25 2634792
251.75 -80.25 -401.70999 5325627
251.78999 -79.989998 -401.73001 2368033
253 -42.200001 -400.56 4863798
254.37 -42.400002 -402.72 2435110
252.00999 -41.84 -402.60001 2959396
251.78 -80.25 -401.73001 5325627
251.81 -80.25 -401.75 5325627
252.42 -42 -402.79001 3488319
252.64999 -80.75 -402.29001 4867389
252.64 -41.75 -403.25 3289639
253.52 -80.699997 -402.89001 4013368
254.14999 -62.959999 -401.45001 5854795
254.23 -42.400002 -402.53 2174241
252.89 -81.010002 -402.32999 4867130
254.14999 -74.559998 -403.95001 4074779
254.42999 -42.400002 -402.47 2174241
252.89 -41.720001 -404.23999 2958374
253.56 -81.75 -402.82999 4997174
254.67 -75.129997 -404.14999 3812125
254.28 -74.940002 -403.94 3942684
253.99001 -62.84 -401.26999 6117460
254.3 -75.199997 -403.85999 3746848
255.37 -47.279999 -395.73999 5595238
254.91 -66.010002 -402.89999 3618857
255.06 -65.900002 -402.91 3749672
255.52 -77.639999 -404.45999 3944745
255.44 -42.459999 -400.5 3486515
254.99001 -63 -402.07999 4671045
256.67001 -90.720001 -407.92999 4735828
255.89999 -65.68 -402.95001 4471086
255.75999 -65.760002 -402.98999 4471086
255.46001 -63.259998 -402.44 4934471
257.09 -42.450001 -403.29999 2829092
256.70001 -66.040001 -403.41 4406069
256.26001 -63.740002 -406.26999 2368033
255.75 -63.689999 -406.26001 2368033
256.10999 -63.950001 -402.70001 5264722
256.17999 -63.779999 -402.78 5266264
256.95999 -77.540001 -405.66 5588028
257.85001 -78.970001 -406.10999 4077879
256.16 -89.470001 -407.85001 4475212
255.75 -89.25 -407.79001 5922909
257.60999 -90.459999 -407.94 3420463
256.25 -85 -405.44 4471865
256.60001 -66.150002 -403.48999 4406069
256.76001 -62.720001 -405.26001 2368033
256.88 -66.480003 -403.82001 4733752
256.41 -62.98 -403 5329746
256.92001 -42.34 -404.12 2697504
257.42999 -67.110001 -404.31 4471606
257.45001 -67.349998 -404.41 4602158
257.73001 -67.239998 -404.45001 4208684
257.03 -63.560001 -404.89999 2368033
256.73999 -64.769997 -403.17001 4933439
256.73001 -63.5 -405.56 2368033
256.82999 -63.619999 -405.53 2368033
256.76999 -63.619999 -405.64999 2368033
257.12 -64.080002 -405.82999 2368033
258.35999 -90.669998 -407.88 3225139
258.23999 -90.470001 -407.88 3749424
257.31 -62.669998 -403.73001 5199708
257.13 -62.849998 -403.70001 5395801
256.73999 -41.25 -404.85001 3223857
256.92999 -41.470001 -404.72 2304796
257.34 -67.580002 -404.42999 4404783
257.09 -62.889999 -404.89999 2368033
257.32001 -64.279999 -404.51001 5525585
258.01999 -62.540001 -403.97 4276273
258.06 -89.510002 -408.07001 4405299
258.35001 -89.57 -408.07999 3882039
257.06 -87.260002 -405.88 4276526
257.60999 -92.639999 -408.04001 5659749
257.26001 -92.239998 -407.87 6580839
256.85999 -78.089996 -405.54999 4341306
258.32999 -61.779999 -403.23001 4935495
258.29001 -62.919998 -404.73001 3685177
258.56 -62.810001 -405.01001 4014146
256.75 -87.169998 -405.75 4342088
257.60001 -65.269997 -404.19 4409670
257.22 -64.230003 -405.95001 2368033
257.07001 -64.260002 -406.23999 2368033
257.25 -41 -404.57999 1974551
257.54001 -64.860001 -406.82001 2368033
257.88 -89.660004 -408.10001 4011828
257.26001 -89.050003 -407.76999 4144439
257.72 -65.089996 -404.64001 4803407
257.29999 -64.18 -405.70001 2368033
259.10001 -89.199997 -408.45999 4013372
257.82999 -89.470001 -408.09 4274226
257.69 -89.589996 -408.14999 4011827
258.32999 -89.849998 -408 4340793
258.5 -64.970001 -406.45999 2368033
258.35001 -64.839996 -406.42999 2368033
258.06 -65.480003 -404.53 5001038
257.54001 -42.549999 -403.12 3288366
258.37 -65.230003 -407.37 2368033
257.75 -41.91 -404.34 3554099
258.29001 -62.099998 -403.60999 5000257
258.79999 -41.830002 -404.39999 2300951
258.89999 -68.519997 -405.10999 4340527
258.04001 -79.110001 -406.20999 4209725
258.67999 -61.970001 -403.85999 4344133
259.69 -72.610001 -406.23999 4208689
258.47 -68.639999 -404.95999 3946284
258.81 -67.760002 -404.95001 5062957
258.5 -62.549999 -404.44 4408655
258 -89.300003 -408.01001 5126960
258.32999 -88.639999 -407.5 4078647
258.98999 -65.760002 -405.59 4675671
258.51001 -87.309998 -407.12 3750201
258.59 -87.040001 -407.26001 3552821
259.70001 -61.860001 -405.98001 0
259.76999 -61.73 -405.75 0
258.39999 -86.199997 -407.29001 3618096
258.97 -66.400002 -408.60999 2368033
259.07999 -65.970001 -408.26999 2368033
258.76999 -65.989998 -408.45999 2368033
259.25 -88.949997 -408.48999 3751478
258.82999 -62.790001 -406.25 4013367
259.19 -76.220001 -406.35999 3947830
259.07999 -88.919998 -408.38 4078902
259.48001 -66.089996 -406.09 5131343
259.76001 -67.199997 -408.64999 2368033
259.85001 -67.410004 -408.67999 2368033
259.67999 -67.309998 -408.73001 2368033
259.73999 -92.720001 -408.20999 4014398
259.20999 -65.800003 -407.73999 2368033
259.04999 -65.760002 -407.88 2368033
260.44 -93.639999 -408.45999 5726046
259.35999 -73.400002 -406.23999 4537641
259.38 -67.389999 -405.32001 5656904
259.69 -68.419998 -405.62 5063729
259.95001 -61.299999 -404.91 4345416
259.72 -61.900002 -406.25 2368033
260.01001 -42.91 -401.95999 2830636
259.75 -61.220001 -403.45999 5197126
260.37 -61.029999 -404.89001 4935501
259.72 -66.720001 -408.48001 2368033
259.82001 -66.589996 -406.42001 4608085
259.79001 -66.230003 -406.98999 2368033
260.60999 -67.510002 -408.12 2368033
260.25 -67.099998 -407.73001 4344138
260.07001 -68.169998 -406.19 5458752
261.57001 -93.540001 -408.54999 5660513
263.06 -60.919998 -403.59 4935504
260.63 -67.769997 -407.31 4671304
260.82001 -68.32 -407.13 4804437
261.32001 -72.739998 -406.89001 4473916
260.67001 -42.240002 -404.89001 2698023
261.23999 -42.43 -403.01999 2831150
261.31 -42.369999 -402.70001 3026734
261.10001 -61 -402.87 5001041
260.75 -60.959999 -405.75 4475447
261 -60.950001 -405.75 4541246
261.26001 -68.349998 -408.54001 2368033
261.92999 -60.669998 -401.79999 5065802
261.07999 -71.790001 -406.79001 5326400
261.85001 -69.059998 -408.39999 4146498
261.67999 -43.880001 -400.04999 3095366
261.69 -42.290001 -401.23999 1515287
261.76001 -68.809998 -408.92001 2368033
261.89001 -42.669998 -400.87 1449241
262.19 -42.240002 -403.89999 3484463
262.29001 -42.220001 -403.98999 2633800
262.41 -42.18 -404.04001 2633800
262.29999 -74.160004 -407.29001 4998979
261.79001 -68.849998 -409.20001 2368033
261.94 -69 -409.29001 2368033
262.60001 -44.189999 -399.72 3092776
262.78 -44.130001 -399.73001 2564644
261.94 -45.150002 -399.32001 3549769
262.14999 -44.189999 -399.79001 3947073
261.76999 -44.84 -399.51001 6250066
262.26999 -42.09 -403.62 3028540
262.67001 -41.91 -403.62 1318173
262.56 -42.23 -401.09 1447959
263.67001 -42.119999 -403.70999 3024676
262.51001 -70.010002 -408.97 7036774
263.04999 -73.610001 -407.64001 4737356
262.42999 -70.239998 -408.57999 7303796
263.01999 -49.880001 -399.01999 5521217
263.38 -72.489998 -408.23999 5787733
263.29001 -71.589996 -408.76999 4278860
262.66 -42.110001 -404.14999 1779254
262.69 -41.93 -402.20001 1448734
264.22 -77.800003 -409.20999 4934982
262.94 -71.559998 -408.32001 4410443
264.26001 -77.110001 -409.03 3756864
263.54999 -42.029999 -403.67001 3024676
263.51999 -41.240002 -405.34 2368033
263.28 -41.93 -405.53 1777695
264.70999 -41.919998 -405.67999 2434594
263.88 -49.77 -399.29999 4601910
263.64999 -41.740002 -404.85999 2170393
262.62 -73.970001 -407.38 5066053
263.64001 -71.400002 -409.64999 5002831
263.89001 -71.919998 -409.23999 4212301
263.70001 -81.470001 -409.48001 8021335
264.32999 -82.620003 -409.73999 8747117
263.79001 -46.169998 -399.28 1977122
263.5 -44.669998 -399.67001 1642779
263.88 -82.800003 -409.42999 7298644
263.70999 -42.060001 -403.94 2565160
263.14001 -70.949997 -409.73999 2368033
264.23999 -41.27 -405.92999 2565159
265.10999 -42.77 -405.04001 2365978
265.26001 -42.880001 -405.12 2365978
265.06 -75.629997 -409.95999 4537408
264.17999 -42.369999 -404.16 2303529
264.28 -72.089996 -410.01999 4410183
264.97 -42.400002 -405.29001 2039572
264.72 -77.599998 -409.45999 3490371
264.84 -77.440002 -409.53 3620153
264.51999 -75.370003 -409.53 4080192
264.84 -85.150002 -409.79001 5002838
265.5 -42.360001 -406.25 2171167
265.64001 -42.490002 -406.22 2171932
266.23999 -42.720001 -406.75 2105373
264.85001 -42.209999 -405.35999 2106135
265.20001 -75.919998 -409.95999 3750712
265.85999 -60.389999 -403.07001 4804172
265.97 -43.27 -405.14001 1647902
264.98001 -77.550003 -409.69 4411208
265.09 -77.300003 -409.73999 4209982
267.38 -43.25 -406.75 2630430
267.25 -43.220001 -406.75 2629401
268.70001 -43.27 -406.29999 1843736
269.39999 -60.900002 -405.45999 5132108
268.92999 -60.549999 -404.19 4802889
268.75 -43.279999 -407.95001 1579796
270 -61.040001 -406.25 5329234
270.70999 -44.959999 -403.92999 3487283
270.35001 -59.939999 -403.92999 5329993
271.64001 -60.209999 -404.70999 5066567
270.75 -43.790001 -409.25 1646104
272.10999 -45.259998 -404.32999 3094834
272.54001 -45.450001 -404.31 3551274
271.60999 -60.419998 -405.04001 4671808
272.10001 -43.93 -407.42001 2303267
272.67001 -60.57 -405.45999 4870211
272.76999 -60.41 -405.23001 5658186
272.59 -60.889999 -406.32999 5000521
271.75 -60.900002 -407.25 5329742
273.10001 -43.860001 -407.69 2763815
273.67999 -43.689999 -408.5 2632230
273.04001 -108.82 -410.72 2960686
274.25 -63.240002 -412.13 3356994
273.37 -108.86 -410.76999 2829354
273.75 -108.39 -410.76001 2895153
274.26001 -61.529999 -407.26999 4473919
274.37 -43.790001 -409.14999 3027243
274.69 -106.69 -411.19 3880247
274.04001 -107.88 -410.82999 2829349
273.87 -108.19 -410.78 3026218
273.75 -61.240002 -406.85999 4868674
274.75 -61.540001 -407.25 4080448
275.25 -61.549999 -407.25 3749947
275.79001 -43.810001 -408.85001 2632490
275.29999 -43.959999 -408.44 2239022
275.98001 -43.669998 -409.35999 2895663
276.14001 -62.009998 -407.42001 3816237
276.37 -62.02 -407.42999 3750453
276.25 -43.369999 -410.25 2304547
275.94 -108.29 -411.41 3026730
276.35999 -61.790001 -407.37 3553077
277.75 -64.269997 -413.01001 2962748
278.37 -43.200001 -410.03 2568492
278.79001 -42.860001 -410.92999 2238492
278.69 -65.110001 -413.19 3554107
279.09 -42.740002 -411.01001 2105884
279.17999 -42.700001 -411.01001 2237211
279.12 -42.700001 -411.09 2105884
278.67999 -42.93 -410.79001 2696481
278.54999 -42.970001 -410.76999 2829350
278.76001 -64.739998 -412.72 3555649
279.17001 -43.27 -409.92001 2831151
279.88 -65.230003 -413.04999 3883585
280.25 -62.259998 -409.23001 3815985
280.25 -62.27 -409.26001 3815985
279.67999 -42.43 -411.62 2237214
280.16 -42.419998 -411.87 3416863
280.23999 -65.309998 -413.14999 3685697
280.04999 -65.269997 -413.09 3752258
280.35001 -65.199997 -413.03 3751234
279.67999 -42.290001 -412.25 2104861
279.75 -42.25 -412.38 2104861
279.75 -42.279999 -412.31 2104861
280.26001 -64 -413.07999 3488050
281.25 -111.88 -412.25 4671566
280.25 -62.389999 -409.5 3421745
280.63 -62.639999 -409.79001 3420459
280.76999 -65.150002 -413.14001 3488308
280.81 -65.260002 -413.28 3554098
281.41 -65.260002 -413.48999 3488057
281.75 -65.230003 -413.56 3225145
281.84 -62.560001 -409.79001 3355950
281.19 -42.299999 -411.94 3025963
281.73001 -63.25 -411.25 2959390
281.56 -42.310001 -412.47 2501158
283.20001 -105.93 -412.78 2632746
282.34 -42.259998 -411.79999 2764589
282.23999 -63.259998 -410.54001 3025441
282.44 -63.209999 -410.28 3025439
282.87 -105.66 -412.76001 2830378
282.57999 -66.190002 -413.67001 3949639
283.57001 -66.489998 -414.17001 4211780
284.48001 -106.78 -413.03 2829095
283.39999 -108.16 -412.94 2368793
283.29001 -108.14 -412.91 2368793
283.42999 -65.809998 -412.81 4080705
283.73999 -63.740002 -410.45001 2829606
283.45001 -42.18 -412.04001 2501416
283.47 -65.879997 -413.04001 4277571
284.42001 -64.580002 -411.78 2239010
284.26001 -64.790001 -412.20001 2568224
284.62 -64.650002 -411.95999 2501416
284.82999 -42.200001 -412.32999 1976349
285.94 -41.66 -414.95999 1711126
285.76999 -41.740002 -415.07001 1907989
285.76999 -41.650002 -414.39001 2367518
285.70001 -41.66 -414.32999 2367518
284.64001 -41.759998 -413.38 3024166
284.92999 -41.720001 -413.63 2565422
284.95001 -41.75 -413.76999 2565422
286.12 -106.59 -413.35001 2437939
285.81 -66.470001 -413.67999 3423291
285.75 -66.080002 -413.23001 3489085
285.97 -64.900002 -412.23999 2432795
285.67999 -41.57 -417.22 2368033
284.87 -41.669998 -412.88 2303008
285.67999 -41.59 -417.20999 2368033
286.44 -41.259998 -413.97 2172188
285.98001 -41.630001 -415.23001 1251347
286.06 -64.699997 -412.10001 1974555
286.41 -69.870003 -414.66 2435110
286.95999 -65.839996 -413.04001 2436632
286.42001 -41.25 -414.67999 1646620
286.01001 -40.959999 -417.75 1644559
285.76999 -40.970001 -417.76001 1710350
286.60001 -41.259998 -415.53 1841171
287.17999 -40 -419.07001 2172447
287 -39.860001 -419.12 1974551
286.88 -40.849998 -414.32001 2303005
288.48001 -103.24 -414.10999 1976095
287.28 -65.730003 -412.94 2173489
287.16 -65.809998 -413.01999 2173733
286.29999 -39.25 -419.25 1841688
286.35001 -39.299999 -419.23001 1121052
286.76001 -39.279999 -419.76001 2368033
287.45001 -67.519997 -414.56 2765094
287.12 -66.68 -413.95001 3555396
287.23001 -66.769997 -414.06 3423803
287.92001 -109.52 -413.76001 1648415
287.25 -109.75 -413.63 2238505
287.16 -65.940002 -413.19 2241324
287.37 -39.990002 -418.97 2434592
289.29999 -67.830002 -414.66 2370595
289.35999 -68 -414.76001 2370595
287.73999 -40.549999 -415.34 2172963
287.98999 -40.5 -415.56 2106908
288.39001 -40.849998 -414.20001 2828572
288.17999 -40.5 -415.82999 1844516
289.25 -104.55 -414.04999 1909025
289.60001 -103.36 -414.32999 1976353
289.04001 -99.18 -414.31 2435365
289.32001 -40.150002 -416.09 2106396
289.51999 -67.07 -413.88 2498338
289.07001 -40.240002 -415.28 2369820
289.32999 -68.669998 -415.17001 2174255
289.56 -69.400002 -415.26001 2698292
290.09 -68.739998 -415.26001 2369061
289.94 -68.970001 -415.22 2434842
289.94 -67.220001 -413.84 2237727
289.79001 -40.689999 -414.66 2698794
289.34 -104.75 -414.16 1843743
290.95999 -107.43 -414.47 2632486
289.73999 -38.799999 -418.14001 0
290.64001 -67.599998 -414.10001 1711897
290.37 -39.91 -416.01999 2827296
290.23001 -101.48 -414.53 2565926
290.85999 -68.279999 -415.20001 2435881
290.89001 -68.190002 -415.09 2435881
290.29999 -40.59 -414.76001 2960678
290.10999 -67.440002 -414.01001 2498849
291.48001 -39.560001 -416.16 3222311
291.22 -67.660004 -414.12 1842456
290.79001 -68.129997 -414.97 2369321
290.75 -68.050003 -414.81 2369321
291.32001 -45.57 -413.64999 7238765
291.35001 -78.68 -415.42001 2764337
290.91 -66.959999 -413.70001 2106649
292.37 -78.919998 -415.04001 2566693
291.97 -106.06 -414.62 2566192
292.41 -68.57 -415.20001 1907732
292.26001 -68.440002 -415.07001 2039576
291.81 -78.93 -415.23999 2566179
291.85001 -78.870003 -415.17001 2566176
292.53 -76.730003 -415.69 2567728
293.67001 -55.330002 -415.64001 2894878
293.60001 -61.93 -414.35999 2368538
293.07999 -69.230003 -415.60001 1776920
293.20001 -76.650002 -415.73999 3157293
293.28 -69.269997 -415.5 1907744
292.76999 -79.300003 -415.38 2106658
292.51999 -79.139999 -415.20001 2435105
292.70001 -79.099998 -415.23001 2304033
293.23999 -78.510002 -415.60999 2173225
292.79001 -78.389999 -415.39999 2434856
292.79001 -78.529999 -415.28 2304807
292.78 -78.25 -415.5 2434856
292.64001 -63.740002 -414.17001 2498600
294.23999 -61.849998 -414.60999 3155747
293.01999 -77.300003 -415.79001 2634030
292.92999 -79.68 -415.70999 2368291
292.92001 -69.290001 -415.76999 1907996
293.76001 -112.26 -414.62 1252119
294.35001 -108.56 -415.19 1318420
293.95001 -39.419998 -416.16 2501412
293.73001 -69.709999 -415.60999 2236189
292.82001 -79.669998 -415.67999 2368291
294.42001 -74.18 -416.14999 2566432
293.56 -76.389999 -415.95001 3092015
292.41 -64.580002 -413.82001 3155999
293.85001 -63.32 -414.72 2567464
294.07001 -78.870003 -415.89999 3222315
295.17999 -78.330002 -415.79999 2502710
293.09 -38.720001 -416.91 2696985
293.89999 -69.870003 -415.69 2236697
293.16 -68.150002 -414.76999 1907995
294.91 -53.279999 -416.17001 3617073
294.95001 -56.790001 -416.13 3221798
294.5 -99.550003 -415.47 2827558
295.06 -77.629997 -416.22 2370862
295.03 -53.599998 -416.12 3354924
294.94 -108.42 -415.23999 1581095
294.82001 -108.35 -415.26999 1973536
294.79001 -108.43 -415.25 1973536
294.70999 -38.060001 -417.01001 2566180
295.70999 -84.220001 -416.14001 3157550
294.60999 -69.690002 -415.48001 1582368
295.14999 -62.77 -414.98999 2565923
295.31 -56.73 -416.17001 2762530
295.48001 -56.529999 -416.14001 2368544
294.63 -69.410004 -415.32999 1778215
294.87 -78.599998 -416.01001 2830897
295.04999 -78.529999 -415.91 2502710
294.82999 -109.1 -415.14999 1578778
294.98999 -109.02 -414.98001 1579546
295.70999 -69.730003 -415.81 1774608
295.70001 -84.68 -416.14999 2632738
294.85999 -53.740002 -416.09 2502186
295.41 -77.699997 -416.29999 2371373
296.45001 -56.470001 -416.20001 2434349
296.39999 -56.290001 -416.14999 2236966
295.87 -54.34 -416.17001 2961962
295.70999 -84.480003 -416.14999 2894888
295.89001 -84.589996 -416.14999 2633513
295.89999 -107.54 -415.26999 1975328
296.39001 -106.16 -415.45999 2173223
295.79001 -108.41 -415.22 2171939
295.69 -108.51 -415.06 1645337
295.95001 -78.809998 -416.32999 2500647
295.82999 -78.800003 -416.23999 2698025
295.32999 -56.950001 -416.19 2698020
296.16 -69.010002 -415.53 2435612
295.76999 -69.110001 -415.48999 2107678
296.44 -58.290001 -416.13 2961447
296.25 -58.23 -416.07999 2831144
296.17001 -37.130001 -417.51001 2106140
296.22 -37.130001 -417.34 2237727
295.85999 -97.57 -415.69 2304034
296.20001 -97.540001 -415.76999 2369052
296.03 -37.189999 -417.56 2106137
296.45999 -54.150002 -416.13 2501925
296.82001 -105.47 -415.62 2631971
297.78 -55.529999 -416.20001 2235417
297.94 -55.380001 -416.23001 2696479
295.57001 -78.110001 -416.10001 2699052
296.79999 -56.82 -416.32001 2370348
296.57001 -67.629997 -415.35001 2695699
296.51001 -58.459999 -416.17001 2764324
297.44 -82.480003 -416.54001 2304552
297.22 -52.889999 -416.73999 2501414
297.64999 -101.88 -416.01999 2828590
298.01001 -101.8 -416.06 2567215
296.64001 -36.799999 -417.60001 2302492
296.82999 -36.669998 -417.66 2302492
296.89001 -108.74 -415.53 2170652
297.04001 -108.75 -415.75 2170652
297.06 -68.519997 -415.51001 1646874
297.42999 -105.18 -415.89001 2107185
296.67001 -83.660004 -416.25 2435877
297.95001 -54.599998 -416.32001 2829871
297.64999 -56.279999 -416.23001 2697511
296.70001 -56.700001 -416.28 2435369
296.79001 -56.630001 -416.26001 2435369
296.87 -83.489998 -416.42001 2566693
297.73999 -107.49 -415.92999 1975070
297.78 -54.16 -416.22 1976099
297.98999 -55.5 -416.20001 2104859
296.98999 -57.650002 -416.32001 2829605
298.19 -57.290001 -416.60999 2960940
296.56 -97.790001 -415.85001 2695960
296.98001 -98.010002 -415.92999 2236954
298.23999 -70.650002 -415.67001 2368802
297.67999 -54.900002 -416.32999 3027496
297.54999 -37.369999 -417.01999 2894371
296.79999 -36.740002 -417.45999 2302492
296.95001 -56.57 -416.23999 2303015
296.91 -53 -416.63 2367000
298.23999 -107.25 -416.01001 1776411
297.79001 -82.25 -416.62 2501162
297.76001 -70.559998 -415.76999 2893859
298.06 -98.730003 -416.19 3158565
297.22 -54.080002 -416.14001 2434861
298.66 -106.1 -415.76999 1776672
297.48999 -85.57 -416.29999 2566440
297.95001 -66.889999 -415.87 2698012
296.70999 -52.57 -416.85001 2303521
297.87 -71.089996 -415.79001 1711381
298.23999 -80.5 -416.79999 2434849
297.54999 -55.150002 -416.29999 2567455
297.85001 -55.130001 -416.29001 2960420
299.85999 -56.040001 -416.5 2698792
298.78 -98.419998 -416.31 2762784
298.76999 -56.259998 -416.48001 2369571
299.01001 -56.66 -416.78 2828576
299.03 -36.25 -417.91 2697250
298.79001 -36.139999 -417.89001 2368808
298.45001 -71.989998 -415.84 1843218
298.48001 -71.830002 -415.76999 2039566
298.03 -66.690002 -415.85999 2698012
298.69 -55.240002 -416.28 3353895
299.39999 -57.16 -417.04999 3090721
298.54001 -73.860001 -417.03 2566953
299.41 -73.019997 -416.48001 1713954
299.81 -72.949997 -416.45999 1516577
299.45001 -73.480003 -416.91 2106410
299.54999 -73.389999 -416.85001 2304305
298.75 -98.080002 -416.32001 2107675
299.14001 -36.919998 -417.59 2107938
299.95001 -74.980003 -417.29001 2763303
298.78 -36.029999 -418.16 2499363
299.13 -105.48 -415.95999 1778726
299.32001 -105.43 -416.01001 1778984
299.67001 -102.08 -416.32001 2238233
299.79999 -107.12 -416.26001 2104851
300.04999 -71.300003 -415.94 2695451
300.45001 -73.010002 -416.48001 2235408
299.31 -54.189999 -416.87 1975585
299.28 -73.75 -417.07001 2633005
299.67001 -105.81 -415.98999 2040866
300.14001 -107.19 -416.26001 1777169
299.42999 -53.119999 -417.07001 2305053
300.14999 -76.099998 -417.12 2698539
299.70999 -55.189999 -416.51001 2697505
299.76999 -73.480003 -416.98001 2566952
299.72 -75.919998 -417.23999 2764585
299.85001 -75.910004 -417.20001 2764585
300.39999 -55.169998 -416.89001 2763821
300.44 -55.34 -416.79001 3026734
300.45999 -58.689999 -417.29999 2696991
300.34 -58.75 -417.23999 2303265
301.01999 -75.870003 -417.10001 2435367
300.41 -90.010002 -416.81 3157291
301.14001 -64.809998 -416.64001 2499873
300.42999 -52.610001 -417.60999 3223085
300.72 -86.120003 -417.12 2568238
300.23999 -107.42 -416.42999 1973779
300.13 -73.410004 -416.95999 2499613
300.44 -76.279999 -417.10001 2631705
300.16 -102.26 -416.57999 2499614
300.56 -55.209999 -416.98999 2763821
300.23001 -57.860001 -417.32999 3025963
300.85001 -58.860001 -417.35001 2827799
301.23999 -75.300003 -417.23999 2566694
301.54001 -55.52 -417.29999 2370340
301.48001 -59.349998 -417.32999 2237460
300.82999 -73.559998 -416.92001 2170654
300.67999 -73.470001 -416.89001 2826787
301.45001 -73.43 -416.54001 2170650
301.70999 -59.049999 -417.48001 2041381
301.45999 -58.900002 -417.45999 2108197
301.10999 -57.169998 -417.31 3156008
301.29001 -89.989998 -416.94 2370603
301.10999 -111.75 -416.32001 1514783
301.25 -111.75 -416.38 1645853
301.39999 -111.5 -416.54001 1578514
302.78 -75.699997 -417.79001 2763555
301.03 -107.66 -416.57999 1712677
300.66 -58.970001 -417.23999 2631193
301.98999 -111.74 -416.66 1971998
302.25 -111.75 -416.64999 1777448
303.13 -65.5 -417.23999 2630684
301.07001 -36.470001 -418.45001 2302741
300.98999 -37.189999 -417.98001 2435362
301 -73.639999 -416.94 2106141
301.20001 -36.279999 -418.57001 2237472
302.76999 -107.17 -416.81 1974812
302.89999 -107.4 -416.78 1516058
301.89999 -107.82 -416.73999 1319460
301.95999 -107.72 -416.70999 1319460
302.25 -95.25 -416.84 2698019
301.34 -57.110001 -417.29999 2828839
302.75 -88.75 -417.42999 2502186
302.57001 -85.629997 -417.44 2697509
302.06 -34.970001 -418.87 2237477
301.64001 -74.779999 -417.45999 2500391
302.67999 -73.779999 -417.03 2433044
302.84 -53.189999 -417.92001 2697505
302.64999 -107.36 -416.76001 2236955
302.44 -107.33 -416.75 2040601
302.48001 -51.91 -418.32001 1646360
301.98999 -86.489998 -417.34 2828584
302.17001 -86.57 -417.39999 2633257
303.22 -58.720001 -417.87 2829100
302.54999 -55.470001 -417.63 2043432
302.56 -73.220001 -416.79999 2039833
302.45001 -73.639999 -416.89001 2499099
303.76999 -34.639999 -418.63 2235672
303 -75.550003 -417.73001 2500640
301.67999 -74.489998 -417.48001 2827817
302.51999 -74.639999 -417.35999 1648158
302.53 -109.42 -416.76001 1777954
303.64999 -109.6 -416.84 1777426
303.39999 -108.8 -416.75 1908242
303.14001 -74.639999 -417.34 1385504
302.92999 -74.529999 -417.35999 1383201
303.12 -74.019997 -417.29999 2171689
303.09 -74.330002 -417.35999 1910310
302.57999 -109.6 -416.79001 2039079
303.73999 -111.75 -416.76001 2368033
304.51999 -35.939999 -419.03 2105626
304.09 -85.599998 -417.76001 2238244
303.78 -109.35 -416.81 1448980
303.88 -102.9 -417.29001 2173215
303.57999 -61.709999 -417.34 2762530
303.25 -70.360001 -416.81 2959138
303.57999 -97.800003 -417.29001 2566177
303.20999 -74.889999 -417.32001 1777951
304.75 -108.31 -417.26001 1383193
303.25 -96.760002 -417.17999 2829099
303.28 -96.980003 -417.23001 2567211
303.67001 -56.639999 -417.94 1254171
302.95001 -109.84 -416.82001 2171420
303.48999 -66.75 -417.37 2763037
304.07999 -111.55 -417.06 2236964
304.82001 -106.5 -417.32001 2368288
304.04999 -107.72 -417.17999 1319713
304.62 -107.64 -417.31 1187097
303.87 -59.52 -417.54001 2305578
303.98001 -71.699997 -416.76001 2106404
304.06 -97.760002 -417.28 2697513
304.44 -74.290001 -417.22 2366995
304.48001 -74.160004 -417.26999 2232848
305.25 -86 -417.92001 2305570
303.92999 -73.019997 -417.31 2499871
304.45999 -109.93 -417.23999 2039579
304.14999 -109.65 -417.01001 1777690
304.76001 -60.790001 -417.79001 2498846
304.35001 -86.010002 -417.70999 2894378
304.12 -86.059998 -417.66 3156780
304.98001 -101.32 -417.57001 2237981
304.42001 -75.93 -418.19 2237217
305.92999 -73.050003 -417.53 2433302
305.73999 -107.8 -417.17999 1645851
304.73001 -105.28 -417.42001 1975327
305.37 -106.36 -417.5 2171680
304.98999 -34.540001 -419.10001 2498585
305.73999 -78.279999 -418.37 1974818
304.54001 -59.740002 -417.63 2499875
304.29999 -109.81 -417.13 1908502
305.51001 -71.360001 -417.10999 2696980
305.35001 -60.759998 -418.01999 2434079
305.38 -64.519997 -418.03 2565399
305.88 -63.84 -418.14999 1516568
304.23001 -58.310001 -418.19 2630685
304.72 -35.07 -419.10999 3090724
305.88 -72.43 -417.29999 2697241
305.32001 -107.66 -417.23999 1581596
304.25 -61.209999 -417.62 2435621
304.48001 -70.959999 -416.89001 2828574
305.59 -64.459999 -418.14999 2432279
305.29999 -61.59 -418.25 1386019
305.97 -103.34 -417.64999 2303519
306.09 -103.6 -417.59 2172441
306.03 -107.9 -417.23999 1776668
305.51999 -106.68 -417.32001 2303779
304.75 -34.669998 -419.03 2499100
305.41 -101.06 -417.70001 2239012
305.85999 -66.57 -417.82001 2564116
305.91 -103.1 -417.72 2369568
305.20001 -74.669998 -417.28 2039326
306.88 -70.029999 -417.63 1908504
305.81 -34.459999 -419.25 3222311
305.66 -34.400002 -419.20001 3025188
305.98999 -63.66 -418.12 2040354
304.75 -33.200001 -418.73001 1712417
305.67001 -71.18 -417.26001 2303001
305.25 -84.75 -418.07999 1779746
305.51001 -72.400002 -417.23001 2170643
305.64999 -32.25 -418.76001 1710361
306.76001 -64.110001 -418.38 1975579
306.66 -63.860001 -418.28 2369054
305.53 -105.31 -417.47 2302504
305.57001 -106.88 -417.19 2369312
306.48001 -63.169998 -418.25 1648414
306.28 -63.07 -418.26999 1385247
306.28 -107.8 -417.28 1514780
306.22 -63.790001 -418.17999 2237984
307.34 -73.32 -417.59 2631707
305.5 -71.669998 -417.04999 2827799
306.64999 -111.06 -417.51001 1972502
305.64001 -76.660004 -418.29999 2565155
305.75 -32.759998 -418.89999 1843232
307.01001 -67.68 -417.82001 1777181
306.01001 -109.17 -417.29001 1252125
306.10999 -76.559998 -418.06 1187350
306.57999 -75.620003 -417.82001 1710869
306.69 -75.769997 -417.85001 1645084
306.82001 -75.57 -417.85999 2103828
306.89001 -71.389999 -417.70001 1776919
306.88 -75.089996 -417.82999 2498074
306.79999 -74.879997 -417.76001 2630170
306.22 -107.48 -417.23001 1778202
307.39999 -73.610001 -417.63 2368535
305.92999 -77 -418.5 2629402
306.14001 -107.55 -417.20999 2170652
306.70001 -76.910004 -418.03 2167826
306.04999 -74.089996 -417.5 2631203
306.07001 -102.99 -417.76001 2566179
307.07999 -111.49 -417.51999 858901
306.48001 -33.759998 -419.26001 2107432
305.94 -59.049999 -418.34 1907739
307.10999 -70.07 -417.66 2236177
308.17999 -70.870003 -418.13 2433557
307.48001 -73.110001 -417.57999 2830116
306.75 -77.75 -418.54001 2368035
308.20001 -77.730003 -418.26999 2041120
306.51001 -61.299999 -418.78 1975842
306.97 -63.669998 -418.38 2368801
306.78 -108.66 -417.60001 1382934
307.35999 -109.35 -417.84 1515036
307.51999 -75.120003 -418 2105620
307.70001 -55.689999 -419.45999 1844774
307.01999 -70.790001 -417.81 2105368
307.17001 -71.849998 -417.67001 2695969
307.07001 -71.68 -417.69 2236449
307.19 -111.26 -417.56 1381903
308.60001 -110.33 -417.92999 1645848
308.32999 -110.38 -417.92999 1579278
307.95999 -110.23 -417.84 1710352
308.14001 -110.25 -417.85001 1579021
308.39001 -73.529999 -417.84 1974551
308.57001 -108.98 -418.04999 1907734
308.10001 -55.860001 -419.53 1844764
308.23999 -70.5 -418 2367774
308.22 -77.75 -418.23999 1777945
307.12 -110.05 -417.67999 1580056
307.76001 -77.610001 -418.20999 2038811
307.17999 -64.82 -418.57999 1974562
309.10001 -66.860001 -419.26999 1581337
308.32001 -69.93 -417.95001 2433818
307.57001 -51.299999 -419.51999 2433819
308.75 -111.75 -418.06 1580313
308.04001 -110.4 -417.92999 1644561
307.91 -55.68 -419.45999 1647649
309.26001 -107.31 -418.17001 1579792
308.20999 -70.279999 -417.92999 2826780
308.29001 -72.010002 -418.29001 1513758
308.75 -72.459999 -418.37 1645330
308.31 -110.22 -417.82999 1579021
309.04999 -55.049999 -419.66 1776921
308.39001 -70.709999 -418.10999 2236952
308.20999 -108.08 -418.06 2300948
308.82001 -55.779999 -419.64999 1909534
309 -107.75 -418.20999 1515554
309.57001 -72.349998 -418.70001 1712153
309.64999 -72.190002 -418.72 2040342
308.76001 -110.44 -418.01999 1645848
309.41 -64.519997 -419.06 2564381
308.51999 -71.120003 -418.28 2499355
309.53 -74.519997 -418.20999 2631454
309.25 -74.809998 -418.20001 1777175
308.98001 -34.540001 -420.13 2368802
309.06 -34.389999 -420.19 2302750
309.01999 -72.809998 -418.35001 2235421
310.28 -105.45 -418.57001 1974308
310.32999 -65.260002 -419.14001 1976096
310.14001 -65.019997 -419.10999 1909535
310.29001 -68.559998 -419.10001 2302238
309.82001 -110.16 -418.26999 1055509
309.70999 -33.240002 -422.25 2303013
309.66 -108.48 -418.20999 1974305
310.16 -108.02 -418.17001 1514781
310.20001 -77.150002 -418.03 2038812
310.04001 -38.099998 -420.29001 2631456
309.91 -59.889999 -419.69 1910050
310.60001 -106.6 -418.20001 2236705
310.60999 -103.32 -418.41 1646615
309.79999 -104.72 -418.48999 2236454
309.54999 -104.89 -418.42001 1908769
310.89999 -106.11 -418.31 1778204
310.59 -40.389999 -420.45001 3091246
311.67999 -104.2 -418.67999 1711899
311.25 -104.02 -418.57999 1384477
310.5 -107.34 -418.20999 1841943
310.76999 -50.240002 -420.23001 1777691
311.01001 -110.95 -418.53 1776664
311.23999 -111.25 -418.54001 1579284
311.45999 -111.25 -418.64001 1317906
311 -111.25 -418.54001 1579286
310.54001 -77.379997 -418.13 2040089
309.01999 -109.71 -417.62 1186323
310.70999 -64.389999 -419.67001 2500132
311.63 -69.150002 -419.53 1319193
311.19 -70.25 -419.53 2499355
310.94 -107.61 -418.20999 1907992
312.04999 -50.52 -420.34 2434855
311.14001 -76.370003 -418.64001 1906455
311.67001 -74.68 -418.63 1842977
310.44 -64.099998 -419.72 2697255
311.20999 -105.53 -418.64999 1843731
311.29999 -67.610001 -419.5 1714216
311.60001 -73.040001 -419.29999 2499097
311.14001 -38.27 -420.64001 2239784
312.10999 -54.389999 -420.23001 1251861
310.32001 -107.57 -418.20999 2104606
312.16 -105.65 -418.60999 1842723
311 -64.559998 -419.78 2435107
310.64999 -53.16 -420.03 1381142
311.98001 -69.629997 -419.62 1777438
311.23001 -66.559998 -419.59 1975844
311.75 -77.75 -418.67999 1777939
311.73001 -51.02 -420.26001 1715755
312.07999 -104.25 -418.76999 1252629
312.70001 -105.01 -418.95999 1251609
311.07001 -65.129997 -419.57001 2040869
311.59 -67.790001 -419.60999 1582110
310.85999 -68.5 -419.20999 2433811
312.57999 -108.52 -418.87 1580314
312.28 -108.57 -418.89999 1187099
312.26001 -108.5 -418.82999 1055255
312.63 -51.110001 -420.5 1973262
312.85001 -51.25 -420.54999 1121047
312.38 -70.419998 -419.79999 1909023
312.26999 -108.04 -418.60999 1054996
312.76999 -71.199997 -419.82001 2040341
312.79001 -68.489998 -420.10999 2367511
312.85001 -68.620003 -420.06 2433303
312.95999 -51.560001 -420.62 1383451
313.01001 -53.389999 -420.57001 1122081
313.51001 -72.370003 -419.85001 1647130
313.07999 -108.74 -419 1906970
313.25 -108.26 -418.95999 1120273
311.95999 -105.59 -418.62 1842715
312.59 -69.379997 -419.70999 2039827
312.56 -69.290001 -419.70999 2039827
