# .PCD v0.7 - Point Cloud Data file format
VERSION 0.7
FIELDS x y z rgba
SIZE 4 4 4 4
TYPE F F F U
COUNT 1 1 1 1
WIDTH 1204
HEIGHT 1
VIEWPOINT 0 0 0 1 0 0 0
POINTS 1204
DATA ascii
50.337677 6.7926636 -11.508871 8089697
51.462307 6.4866729 -11.453348 6904909
52.641605 6.3426499 -11.383463 5852236
54.111038 6.9887943 -11.234224 7037782
55.172447 6.4393992 -11.169828 6117703
56.324894 6.2268205 -11.084064 6511437
57.177685 6.4362049 -11.007566 5722678
-6.1967001 7.1808605 -11.036501 7497817
-5.2621751 7.3638077 -11.046375 7039326
-4.4353762 7.3018789 -11.097478 7104351
-3.4814196 7.4277964 -11.121799 6115411
-2.2180054 7.4935179 -11.195517 5985616
-1.2287817 7.5370917 -11.252245 6840429
-0.40070868 7.6035824 -11.298888 7366742
0.31014562 7.3396621 -11.387021 6906712
1.5804213 7.5474839 -11.41782 6445645
2.654717 7.6221199 -11.453404 7365982
3.3418903 7.3934321 -11.529034 6709586
4.5287676 7.5285401 -11.540682 6774357
5.6288304 7.417233 -11.6163 6908510
6.464046 7.4805856 -11.660541 7367780
7.4944272 7.5891466 -11.713138 7039065
8.6842012 7.5624533 -11.806565 7631720
9.7236547 7.3895569 -11.907361 7235162
10.416557 7.479763 -11.936905 8617589
11.172573 7.6620946 -11.950544 9009512
12.177925 7.9935942 -11.928274 6447453
13.381371 7.870862 -11.986485 6249042
40.701698 7.6865025 -11.95747 7957600
41.547932 7.3860002 -11.952325 8549484
42.679157 7.4710932 -11.900299 7957860
43.634491 7.389348 -11.866776 9530732
44.666138 7.469945 -11.806328 7629921
45.531319 7.4336004 -11.750257 7762532
46.648247 7.3122911 -11.687149 8352614
47.546291 7.3126206 -11.637063 7628895
48.631859 7.7148385 -11.547989 7825500
49.458057 7.5794792 -11.510958 7103831
50.625446 7.3730917 -11.446898 7828838
51.595112 7.7173963 -11.366145 7300185
52.53558 7.602591 -11.315226 7364946
53.841 7.8976803 -11.199272 6446157
54.946503 7.7500095 -11.115599 6839892
55.481945 7.0810575 -11.113299 6576459
56.250092 7.3452625 -11.034758 6708045
-2.4245434 8.1999311 -11.044466 6579540
-1.4730659 8.3709564 -11.071922 6576719
-0.7136566 8.4438372 -11.100002 6314066
0.40014923 8.6063795 -11.122049 6378322
1.3881086 8.2870827 -11.247115 6643801
2.5614042 8.6386347 -11.217435 6379083
3.4841223 8.5362282 -11.28319 6773584
4.4371524 8.5226917 -11.327559 7299673
5.5069218 8.408515 -11.404683 6840922
6.7066946 8.4085455 -11.48825 7302503
8.023181 8.5265398 -11.561441 6840156
9.5233364 8.4738674 -11.682952 7432293
10.554981 8.4396095 -11.752623 7826789
11.365944 8.4254904 -11.805161 6709334
12.267339 8.9509544 -11.733185 5919302
13.48969 8.4930344 -11.862842 6117195
14.528993 8.5003328 -11.879863 5984585
15.55212 8.5309114 -11.910886 7760475
16.367079 8.6388979 -11.92421 6643285
17.378723 8.692482 -11.95808 7171674
18.795166 8.8328667 -11.987026 6773830
35.787495 8.9890995 -11.955433 7105882
36.333778 8.6623869 -11.982418 7364179
37.32909 8.8421431 -11.934179 6905173
38.20591 8.3291149 -11.967245 9471846
39.677177 8.5375252 -11.889444 7695456
40.760193 8.8303547 -11.822485 7760220
41.633713 8.51334 -11.834636 7627350
42.313324 8.6735182 -11.792885 8546129
43.392094 8.5204182 -11.766665 6839889
44.504936 8.7356653 -11.690937 7496543
45.927811 8.2181005 -11.66879 7626844
46.89716 8.3904104 -11.587469 8287841
47.702606 8.5067263 -11.528811 7826269
48.694248 8.694869 -11.44455 7102810
49.62529 8.2890654 -11.431542 6971735
50.539501 8.2080421 -11.376263 7038037
51.59034 8.6135788 -11.2812 6710102
52.605427 8.4221611 -11.240315 6971218
53.710045 8.7109461 -11.134087 6777441
54.579933 8.7094059 -11.067237 7103063
3.2243361 9.2791424 -11.09924 6118734
4.1060553 9.3072929 -11.13353 6181716
5.3949947 9.5119638 -11.149879 6181712
6.5890555 9.9310303 -11.116907 5985092
7.4968052 9.4308472 -11.309418 6511700
8.6712646 9.1110516 -11.477068 7629148
9.5008945 9.4006071 -11.465463 6972758
10.695669 9.6617317 -11.488633 6644309
11.626295 9.4343729 -11.593444 6117712
12.88704 9.6421137 -11.591181 5788496
13.493782 9.449482 -11.65081 6576214
14.347723 9.4855165 -11.661319 6313805
15.507477 9.2815561 -11.737371 6117717
16.497057 9.2466555 -11.793614 6645839
17.565414 9.7223206 -11.721646 6576976
18.75399 9.7041254 -11.779329 6379083
19.538193 9.5743561 -11.847942 6708561
20.442459 9.5385418 -11.887244 6446681
21.496805 9.5634899 -11.912157 6380628
22.507385 9.5516014 -11.938155 6380624
23.558559 9.7795887 -11.910018 6051405
24.545488 9.780982 -11.917596 6383456
25.488411 9.7675371 -11.933852 7300702
26.339153 9.7020092 -11.954374 6444878
27.298317 9.597909 -11.982568 5985605
28.437157 9.6447296 -11.966441 6314571
29.33168 9.8302126 -11.915983 7037269
30.517757 9.7600269 -11.929892 6511184
31.423016 9.6236229 -11.957838 6446417
33.280701 9.4753418 -11.949377 7300954
34.319366 9.4076834 -11.93038 7828829
35.265198 9.2169075 -11.934908 7300434
36.380577 9.4906225 -11.857391 7367517
37.382618 9.4810638 -11.826874 7300695
38.38356 9.5260534 -11.784169 7038039
39.425468 9.5133448 -11.758551 6839381
40.405579 9.5675745 -11.71804 7431772
41.470711 9.4463367 -11.709197 7037525
42.36544 9.5517426 -11.659978 7432024
43.473927 9.6657906 -11.604177 6971221
44.852592 9.6408596 -11.548877 7169111
46.087189 9.4252167 -11.508343 6906457
47.419739 9.2698526 -11.453898 7169112
48.190319 9.6818504 -11.353514 7298636
49.277405 9.5049744 -11.309004 8351073
50.521919 9.4935999 -11.232063 7365462
51.365845 9.5669041 -11.184619 7365722
52.564236 9.7084198 -11.096613 7036752
53.240074 9.3808737 -11.093834 7167316
54.113884 9.4045315 -11.026546 7759193
7.453548 10.246794 -11.098437 5789003
8.4857073 10.256242 -11.174992 5196612
9.6987648 10.499535 -11.192604 6578771
10.618227 10.505469 -11.25743 6510930
11.455342 10.51675 -11.292016 5329739
12.420103 10.389767 -11.367073 5853515
13.403641 10.402033 -11.399042 6643282
14.479797 10.472254 -11.406461 5920844
15.281316 10.179212 -11.506531 6446684
16.455595 10.160145 -11.557501 6381908
17.541889 10.59837 -11.490707 6183758
18.472557 10.507413 -11.562894 5921102
19.523426 10.436434 -11.633659 6051402
20.285376 10.629063 -11.607345 6313548
21.439766 10.686596 -11.633001 5658702
22.441282 10.382311 -11.744076 6380620
23.504362 10.577306 -11.713492 5788750
24.569183 10.357672 -11.78879 6315614
25.500189 10.379936 -11.792255 6184017
26.498795 10.566995 -11.755913 6646107
27.516941 10.392833 -11.798758 6381139
28.454762 10.592917 -11.742899 7103573
29.384203 10.709306 -11.722638 7102035
30.45174 10.508255 -11.776071 6707793
31.62616 10.461454 -11.785725 6840920
32.573441 10.582569 -11.74057 7103573
33.574665 10.583113 -11.712932 6708055
34.979694 10.12011 -11.777386 6642511
35.188808 10.744204 -11.638884 6445139
36.272617 10.62425 -11.642323 9076586
37.371552 10.527091 -11.636661 6708559
38.554337 10.775822 -11.553013 6445906
39.55032 10.412966 -11.584899 7039577
40.551678 10.483047 -11.543019 7234652
41.448231 10.454533 -11.524021 7366749
42.782593 10.612381 -11.451776 6905428
43.833355 10.436082 -11.458307 6839127
45.106472 10.61547 -11.362823 6837071
46.385311 10.437099 -11.3313 6708820
47.47411 10.426867 -11.277616 7038040
48.235363 10.6092 -11.204557 7366242
49.200722 10.378298 -11.187671 9405297
50.586159 10.542076 -11.086073 7233625
51.443996 10.351693 -11.067429 7232854
10.626112 11.252543 -11.024824 6643796
11.674308 11.277618 -11.05908 5592139
12.439118 11.361524 -11.06557 5985617
13.450078 11.318876 -11.114565 5327169
14.344975 11.100062 -11.219837 5458756
15.434394 11.660574 -11.07847 5593167
16.480217 11.482553 -11.170113 5525057
17.51125 11.561842 -11.200356 5918777
18.658127 11.6607 -11.223608 6182989
19.533823 11.826954 -11.211905 5853522
20.514412 11.621513 -11.311836 5985093
21.418959 11.437746 -11.4069 6969430
22.248405 11.309875 -11.475816 5988174
23.47691 11.569471 -11.427506 6315085
24.609257 11.483435 -11.475857 6117966
25.119688 11.63872 -11.445885 6116939
26.277222 11.456749 -11.510791 6644313
27.080736 11.908078 -11.379341 7103584
28.640848 11.633297 -11.479137 7234396
29.477869 11.513084 -11.523496 6841944
30.460876 11.61366 -11.51107 7302237
31.614151 11.329988 -11.57963 7038296
32.476913 11.467961 -11.526564 7169110
33.405548 11.500717 -11.503346 6117711
34.462677 11.424532 -11.501989 5591364
35.592133 11.633957 -11.430145 7300189
36.703697 11.282027 -11.48895 7693397
37.451912 11.505918 -11.42457 6708045
38.505814 11.652499 -11.36274 6576722
39.372978 11.309961 -11.410336 6512474
40.369781 11.349548 -11.36227 7694427
41.498051 11.348371 -11.326454 6181960
42.992744 11.513905 -11.237916 5853519
44.377857 11.340894 -11.229033 6051148
45.857006 11.57823 -11.115874 6708056
47.243073 11.424653 -11.091288 6444624
48.565681 11.44692 -11.022526 6248272
49.437157 11.034085 -11.061395 6840661
19.229589 12.367132 -11.014795 6641238
20.489082 12.196708 -11.11506 5854282
21.511908 12.385105 -11.086606 7299948
22.497921 12.278905 -11.158431 6643292
23.644358 12.399215 -11.155663 6315861
24.446854 12.555606 -11.120397 6052951
25.403059 12.492934 -11.164392 6184015
26.572655 12.485016 -11.186696 7040353
27.416437 12.742466 -11.110738 8683367
28.468842 12.64798 -11.156506 9398112
29.584852 12.34917 -11.284469 6446935
30.560036 12.612459 -11.217381 6510926
31.431366 12.518602 -11.242723 6709589
32.737072 12.419241 -11.25391 6774612
33.571663 12.611929 -11.195997 6247756
34.57851 12.570354 -11.194072 6248784
35.406315 12.468615 -11.209782 6972244
36.63443 12.414361 -11.202974 8419685
37.710934 12.076286 -11.268822 9342306
38.564171 12.467416 -11.145528 6641490
39.694298 12.294817 -11.161454 6247499
40.549522 12.37803 -11.099877 6248270
41.280857 12.297712 -11.084743 6246727
42.276096 12.099447 -11.100533 5918276
43.560452 12.219751 -11.018585 6116684
29.636621 13.003744 -11.072234 6708558
31.881989 13.185485 -11.022839 6841702
33.335064 13.057302 -11.060835 6446915
34.122463 13.020223 -11.066007 6708815
35.757267 13.106423 -11.017275 7103581
10.985092 -13.080031 -10.025181 10262664
11.996958 -13.046227 -10.064835 9736579
12.83069 -13.030727 -10.083732 10459539
15.26252 -13.030353 -10.063259 10592916
20.534927 -13.037624 -10.021301 9538436
-5.74336 -12.203335 -10.061277 10789008
-4.5716071 -12.147712 -10.104223 11116439
-3.5302575 -12.170008 -10.138333 11051928
-2.4915869 -12.244185 -10.155866 10657169
-1.655 -12.26897 -10.166485 10724245
-0.56205273 -12.29286 -10.182659 10919568
0.69998515 -12.340318 -10.184723 10392971
1.6992043 -12.332531 -10.213708 10656652
2.8228741 -12.447487 -10.176388 10787210
3.5244527 -12.432104 -10.204626 10523776
4.3212404 -12.392897 -10.228334 10327169
5.2943082 -12.611336 -10.141401 10655107
6.3425007 -12.377291 -10.263854 10524807
7.6081138 -12.460903 -10.235729 10393483
8.6240873 -12.631226 -10.179065 10458244
9.3494186 -12.517856 -10.251992 10261382
10.525328 -12.40089 -10.320928 10326916
11.568029 -12.356169 -10.35128 10130053
12.452837 -12.262115 -10.401701 10195589
13.471835 -12.46466 -10.337849 10261379
14.58553 -12.633486 -10.261224 10393484
15.456388 -12.527019 -10.292643 10590351
16.619516 -12.728159 -10.190097 10590095
17.62254 -12.629344 -10.236404 10195079
18.448036 -12.619735 -10.241951 9867909
19.570023 -12.735909 -10.176752 9473411
20.549774 -12.559723 -10.240166 9472382
21.483822 -12.704552 -10.155966 9471868
22.474663 -12.520871 -10.20784 9604478
23.473736 -12.431704 -10.206137 9801351
24.327772 -12.356264 -10.200151 10064527
25.501461 -12.373667 -10.170349 10392194
26.440594 -12.278031 -10.204069 10458501
27.515249 -12.388331 -10.167421 10457990
28.528652 -12.320981 -10.209396 10260360
29.388905 -12.380501 -10.203964 10195336
30.564043 -12.331315 -10.249215 10129540
31.558224 -12.576553 -10.179201 9999241
32.490734 -12.24704 -10.304485 9209986
33.921734 -12.446432 -10.216406 9736326
34.590527 -12.408601 -10.214715 9997956
35.476601 -12.371901 -10.208907 9800832
36.325699 -12.408578 -10.161004 9342082
37.421005 -12.272007 -10.179237 9801606
38.316311 -12.405815 -10.077386 9669247
39.586796 -12.23535 -10.092753 9275262
40.335815 -12.123353 -10.108088 10128002
-12.154263 -11.190921 -10.000899 11052187
-11.21731 -11.198145 -10.093473 11119516
-10.41749 -11.399885 -10.101028 11183512
-9.4178391 -11.410219 -10.176084 10986649
-8.5945616 -11.327499 -10.256813 11050383
-7.8023634 -11.688356 -10.178488 10526096
-6.5539551 -11.255867 -10.376621 11181976
-5.2633162 -11.520921 -10.336209 10264211
-4.1820326 -11.372011 -10.425383 11050393
-3.4572105 -11.568895 -10.383436 10788755
-2.6092877 -11.404392 -10.479308 10986389
-1.5037314 -11.603703 -10.438943 11051155
-0.77741146 -11.543664 -10.472467 11052434
0.32222348 -11.643496 -10.46195 10393739
1.2466154 -11.42021 -10.569928 10329228
2.3327773 -11.526085 -10.547937 11049610
3.6924248 -11.670482 -10.529937 10655357
4.4232655 -11.293278 -10.679668 10130310
5.5190735 -11.566427 -10.599355 10589062
6.7222838 -11.361824 -10.701159 10720906
7.8237972 -11.207169 -10.787525 10984590
8.6969271 -11.454645 -10.704756 10589319
9.6961288 -11.432057 -10.728156 10392960
10.500389 -11.362087 -10.761732 10590090
11.371929 -11.543864 -10.694858 10524814
12.566585 -11.444901 -10.733101 10064775
13.503616 -11.54245 -10.711544 10130566
14.618076 -11.51195 -10.73743 10195585
15.629875 -11.54565 -10.719011 10064519
16.892448 -11.660793 -10.658068 9998214
17.43461 -11.093196 -10.879087 10130576
18.393263 -11.484564 -10.718031 10195849
19.240362 -11.465347 -10.716234 9866891
20.219259 -11.515999 -10.684419 10063750
21.625286 -11.426941 -10.69379 9802118
22.687815 -11.220121 -10.748405 10458247
23.609108 -11.47429 -10.616221 9736065
24.601896 -11.695127 -10.491409 9736323
25.53524 -11.577049 -10.508505 10194825
26.349648 -11.324081 -10.597178 10458503
27.253296 -11.448657 -10.548906 10392708
28.523766 -11.513367 -10.529075 10261382
29.622635 -11.527453 -10.533863 10720392
30.366823 -11.519318 -10.545648 10524810
31.420998 -11.606204 -10.53087 10590347
32.605446 -11.66577 -10.511973 9735812
33.407204 -11.688118 -10.503538 10260357
34.42379 -11.459417 -10.568643 10523786
35.374893 -11.704499 -10.464915 10589320
36.490639 -11.414148 -10.548084 9998476
37.578678 -11.573321 -10.445935 9867143
38.43829 -11.806617 -10.31566 9933187
39.438347 -11.513458 -10.381492 9997183
40.493816 -11.346897 -10.398071 9932163
41.309189 -11.687121 -10.229402 9997955
42.393711 -11.400021 -10.265275 9736068
43.401226 -11.365138 -10.21364 9866628
44.560028 -11.242924 -10.183747 9603970
45.626812 -11.287504 -10.088362 9734787
47.196964 -11.018448 -10.045437 9998211
-14.542088 -10.144882 -10.08972 10656395
-13.687016 -10.500536 -10.074179 11905955
-12.521414 -10.644522 -10.14119 11381917
-11.475247 -10.492052 -10.291538 11970974
-10.425975 -10.609992 -10.358779 11380636
-9.4045887 -10.673691 -10.413153 11051922
-8.5717745 -10.357932 -10.54879 10920856
-7.5292902 -10.691992 -10.502911 10656912
-6.5956993 -10.402235 -10.634769 11774104
-5.4859715 -10.485148 -10.660131 11643292
-3.3739576 -10.508461 -10.753301 10722705
-2.4732347 -10.250444 -10.877344 11707284
-1.629281 -10.492828 -10.826136 10854801
-0.73107445 -10.885612 -10.716339 10525072
0.43264124 -10.503597 -10.869164 11511188
1.425782 -10.596897 -10.861588 11313816
2.4738452 -10.503518 -10.912662 11182483
3.5210466 -10.575235 -10.908279 11050634
4.407537 -10.653746 -10.901652 10722444
5.3717036 -10.988029 -10.807738 10984079
6.4655113 -10.635392 -10.96664 10919303
7.6553011 -10.675389 -10.979936 10987928
8.6985865 -10.874319 -10.930932 10590086
10.843123 -10.884006 -10.956975 10786696
11.463892 -10.949254 -10.933067 10459792
13.541433 -10.790165 -10.990316 10261638
14.25731 -10.982882 -10.937057 9868167
15.700242 -10.993159 -10.929266 10065288
16.592398 -10.823252 -10.989931 9867909
18.44389 -10.746145 -10.987749 10524817
20.40819 -10.918392 -10.897193 10196366
22.560032 -10.808536 -10.899627 10130564
23.426832 -10.661048 -10.927823 10460298
24.732426 -10.658545 -10.882936 10196107
25.616764 -10.545664 -10.904397 10393735
26.63257 -10.493331 -10.903534 10918280
27.81776 -10.611045 -10.858582 11510928
28.853045 -10.577389 -10.870819 10654598
29.770544 -10.579231 -10.870164 10918793
30.541885 -10.526213 -10.890305 12035744
31.287998 -10.651884 -10.853407 11182488
32.686279 -10.662024 -10.853683 10853005
33.712185 -10.70687 -10.834028 10327700
34.517673 -10.449734 -10.911378 11772569
35.564117 -10.514732 -10.868014 10786957
36.637627 -10.478878 -10.854511 10588808
37.784233 -10.345432 -10.866444 9997695
38.986877 -10.662335 -10.709833 9866885
39.114609 -10.027576 -10.913921 10392197
40.123821 -10.555797 -10.686268 9932165
41.333908 -10.520583 -10.640469 10063490
42.393959 -10.469988 -10.592909 9735813
43.399872 -10.424775 -10.550793 9473667
44.282898 -10.566058 -10.441862 10064262
45.675777 -10.500258 -10.36569 9801346
46.482426 -10.639229 -10.248338 9998214
47.57806 -10.536064 -10.184678 9734528
48.607117 -10.496416 -10.105236 10523521
49.674744 -10.353712 -10.056943 9341825
58.854065 -10.252858 -10.023254 7890263
59.411205 -10.312876 -10.069455 8021844
60.559334 -10.229264 -10.177577 7825238
61.407383 -10.245372 -10.163383 7627342
62.35899 -10.206405 -10.116508 7691592
63.139687 -10.049736 -10.130672 7496011
-17.038696 -9.2784901 -10.06108 11578006
-16.042078 -9.5658903 -10.100393 11444633
-15.362062 -9.3781662 -10.200459 11773847
-14.480163 -9.2364655 -10.316349 11313553
-13.207371 -9.4101563 -10.404881 11248015
-12.168741 -9.2555447 -10.554239 11575442
-11.511414 -9.6502037 -10.521393 11709339
-10.420547 -9.660737 -10.620841 11839898
-9.2575245 -9.4671144 -10.740044 11973017
-8.4473648 -9.3708286 -10.798562 11642002
-7.4263477 -9.5485125 -10.801588 11510679
-6.4403396 -9.4842577 -10.877346 11840161
-5.5979652 -9.763958 -10.854169 11643291
-4.6515646 -9.6982822 -10.923434 11511714
40.64323 -9.6818562 -10.9506 10129025
41.636375 -9.7437706 -10.873856 11966342
42.656265 -9.5512123 -10.868427 10392453
44.494514 -9.7978525 -10.679777 10589063
45.396183 -9.3516798 -10.750115 10390912
46.34388 -9.3403444 -10.673684 10195588
47.641426 -9.584053 -10.495596 10259849
48.489166 -9.5666857 -10.423729 10524554
49.385746 -9.5237722 -10.35513 10326922
50.388706 -9.5682669 -10.245349 10260612
51.345596 -9.4702053 -10.177816 9866625
52.830582 -9.4319 -10.029712 9406846
58.970074 -9.8376369 -10.015489 7496021
59.587452 -9.6879759 -10.106048 7562580
60.542038 -9.5374441 -10.26937 7758931
61.58736 -9.4687481 -10.402468 7825497
62.558609 -9.5883465 -10.419559 7759447
63.492851 -9.44874 -10.435286 7693652
64.411362 -9.439847 -10.428991 7430480
65.487968 -9.44275 -10.371417 7364688
66.474869 -9.3166866 -10.365827 7430736
67.579582 -9.2704773 -10.346251 7299668
68.554115 -9.2212734 -10.334303 7364690
69.391235 -9.2129393 -10.25647 7036754
70.501175 -9.2074308 -10.117413 7232328
-18.820831 -8.0895967 -10.086449 11641757
-17.556387 -8.5601959 -10.149405 11774873
-16.39142 -8.4136515 -10.299104 11970966
-15.467409 -8.516695 -10.368405 11379090
-14.676694 -8.2708893 -10.489756 11378836
-13.49764 -8.4984083 -10.582395 11642771
-12.350736 -8.3162766 -10.742919 11643032
-11.588597 -8.491066 -10.774383 11708570
-10.360208 -8.2036896 -10.914855 12169634
-9.5973873 -8.764925 -10.865416 12694427
-8.9975376 -8.274827 -10.970175 12168088
-7.9878292 -8.5528536 -10.98046 11706769
44.508369 -8.9710722 -10.918709 11114633
45.252998 -8.739459 -10.924176 10524807
46.604118 -8.7829437 -10.810813 10655621
47.44389 -8.4008379 -10.847467 9803391
48.246414 -8.5674019 -10.73313 10128517
49.56324 -8.4813766 -10.637187 10063744
50.481544 -8.5375719 -10.531768 10195588
51.284843 -8.3803101 -10.496565 10589063
52.223038 -8.6234722 -10.330751 10261378
53.455551 -8.5871124 -10.208656 9406331
54.414375 -8.7127762 -10.078017 9339511
55.61879 -8.2061405 -10.093494 9339765
59.815945 -8.7108974 -10.005871 7367514
60.605824 -8.5203428 -10.087788 7825243
61.566273 -8.5207129 -10.217557 7563100
62.595234 -8.6358232 -10.313336 7431511
63.51667 -8.4951124 -10.283672 7365204
64.535049 -8.559926 -10.354692 7364947
65.402252 -8.5320539 -10.389705 7364435
66.437935 -8.41189 -10.407156 7496021
67.550316 -8.490778 -10.556287 7627348
68.478638 -8.4318027 -10.598963 7496021
69.454315 -8.53582 -10.62626 7365204
70.500267 -8.3611193 -10.688463 7693398
71.461143 -8.4442892 -10.56413 7825751
72.546227 -8.3742847 -10.475554 7496278
73.56218 -8.2903671 -10.388026 6771005
74.408043 -8.3050299 -10.231436 6507318
75.406464 -8.1702576 -10.14741 6374960
76.294106 -8.0264492 -10.06485 6376240
-19.576488 -7.4400725 -10.083186 12166554
-18.317451 -7.3713231 -10.235209 11972509
-17.32342 -7.5460658 -10.337335 12628125
-16.372557 -7.3130126 -10.473328 12496792
-15.489555 -7.4515138 -10.533944 11905172
-14.289248 -7.3156142 -10.673164 11115659
-13.500743 -7.6510577 -10.729535 11314584
-12.490672 -7.47297 -10.86957 11839640
-11.797385 -7.7166409 -10.899446 11512475
-10.98254 -7.6463332 -10.971213 12364441
48.006287 -7.6303492 -10.988002 10263679
49.647755 -7.4968619 -10.864469 10129030
50.653465 -7.6654882 -10.737665 10326657
51.620522 -7.4875631 -10.673506 10326665
52.43248 -7.7045283 -10.541964 9669503
53.474472 -7.4451857 -10.493938 9801344
54.446518 -7.6938591 -10.342468 9406071
55.396126 -7.5816584 -10.28109 10061949
56.581177 -7.579432 -10.168816 9077618
57.57476 -7.2708826 -10.14849 8681837
58.332363 -7.2930613 -10.058831 8616558
59.134544 -7.0664511 -10.005892 9533807
62.477837 -7.9473629 -10.040933 7759704
64.654816 -7.9071822 -10.028751 7431513
65.586578 -7.9015026 -10.074902 7431513
66.634888 -7.7810898 -10.113272 7693914
67.54847 -7.7343845 -10.201119 7824726
68.565208 -7.7602439 -10.368634 7430482
69.577225 -7.691453 -10.497947 7430220
70.449203 -7.5325503 -10.547921 7364177
71.446907 -7.5486317 -10.644494 7364172
72.440727 -7.4896545 -10.636048 7233361
73.542572 -7.4850535 -10.616059 7035464
74.471619 -7.5148816 -10.59912 7101257
75.516457 -7.5821424 -10.430647 6770749
76.471603 -7.4011583 -10.320811 6902850
77.489685 -7.3173356 -10.187241 7298381
78.278191 -7.2494755 -10.058375 7428680
-20.530491 -6.6189198 -10.070053 11510928
-19.546579 -6.3511372 -10.225551 11642780
-18.556751 -6.5164828 -10.316758 11575955
-17.341383 -6.6759133 -10.444904 11444366
-16.430176 -6.5080514 -10.558325 11115401
-15.359463 -6.3231759 -10.680226 11707018
-14.617125 -6.6613903 -10.716032 10852743
-13.324539 -6.5989208 -10.863932 11576980
-12.446721 -6.7060032 -10.963103 11975327
50.719929 -6.5736904 -10.953198 11114898
51.8409 -6.3826561 -10.889408 10720652
52.604435 -6.7979565 -10.734003 9931649
53.328941 -6.5326848 -10.725768 10062972
54.411217 -6.6837001 -10.584003 9995895
55.608105 -6.5976839 -10.487762 9998468
56.609955 -6.41324 -10.425024 9143409
57.605461 -6.4259996 -10.32328 8813684
58.614639 -6.6373067 -10.16986 8944750
59.45586 -6.4936838 -10.089317 9009259
60.093082 -6.3433242 -10.054585 8155227
70.108574 -6.9993677 -10.010824 7563346
71.705002 -6.9693956 -10.095593 7364944
72.604744 -6.9502006 -10.137418 6970704
73.541573 -6.8955235 -10.19249 7034952
74.47361 -6.8365607 -10.22668 7101000
75.561256 -6.8257556 -10.227118 7034696
76.490715 -6.7644601 -10.170885 6903623
77.463203 -6.8075833 -10.141122 7101001
78.24205 -6.8844557 -10.064051 7494988
-23.052212 -5.0810618 -10.074675 11247503
-22.35034 -5.4226069 -10.070465 10722184
-21.576586 -5.7166333 -10.093349 11444628
-20.431871 -5.5659652 -10.242134 10721680
-19.344917 -5.5018883 -10.373688 10919314
-18.338425 -5.6648622 -10.465139 10722184
-17.561781 -5.4433169 -10.558788 10525323
-16.566107 -5.582407 -10.632945 10787469
-15.473223 -5.3706942 -10.755681 11050123
-14.431766 -5.5039024 -10.845214 10984335
-13.537153 -5.3198271 -10.943472 10917252
-12.9053 -5.9734612 -10.972339 11640466
52.529339 -5.7304611 -10.948551 10786179
53.626915 -5.688458 -10.857088 10194817
54.619576 -5.6231017 -10.769827 9997434
55.666534 -5.5206313 -10.677658 9800317
56.642776 -5.6249228 -10.561802 10062462
57.297714 -5.509234 -10.518671 9799280
58.443401 -5.6476426 -10.375669 9995891
59.592209 -5.3927879 -10.292753 9207657
60.476871 -5.3492455 -10.210964 8945260
61.24823 -5.294733 -10.145383 8813157
-26.667253 -4.3430395 -10.007084 11246224
-25.336021 -4.4660683 -10.050428 10655624
-24.426615 -4.5970783 -10.083706 12297878
-23.651318 -4.324687 -10.197203 11247253
-22.341639 -4.3823261 -10.269161 10065800
-21.264717 -4.4344158 -10.346582 10720641
-20.412762 -4.5062256 -10.416195 12170672
-19.613976 -4.2783732 -10.519001 11637901
-18.564482 -4.6137395 -10.556305 10722450
-17.628059 -4.5517893 -10.626176 11705228
-16.557499 -4.3981657 -10.718952 11575184
-15.482754 -4.3443699 -10.815798 12296081
-14.714499 -4.5403128 -10.874807 10983567
-13.93627 -4.5549245 -10.948592 11774361
53.648869 -4.9414797 -10.973907 10654083
54.738255 -4.758996 -10.896542 10326131
55.556396 -4.390583 -10.865597 10455421
56.234119 -4.0478821 -10.838866 11768966
57.139488 -4.3457279 -10.716403 10390128
58.427608 -4.5390348 -10.555542 9340015
59.795242 -4.3965044 -10.44247 10388342
60.797729 -4.4293518 -10.332232 9467998
61.605667 -4.6204605 -10.224457 9010293
62.356361 -4.4564776 -10.16255 9336422
63.208344 -4.127326 -10.116907 9140334
64.081062 -4.1758003 -10.00171 10980471
-28.623436 -3.4398394 -10.082322 11510415
-27.590174 -3.3899345 -10.126485 11904915
-26.436298 -3.5257001 -10.161575 11052183
-25.58147 -3.4421363 -10.230945 10852234
-24.58651 -3.4379954 -10.297358 10851727
-23.949663 -3.5455461 -10.324784 11378065
-22.859386 -3.5274844 -10.389522 11442831
-21.593637 -3.4783237 -10.464126 11182484
-20.467812 -3.4413137 -10.547554 11310218
-19.607149 -3.3692811 -10.614709 11708056
-18.685476 -3.5465364 -10.647769 11248277
-17.532652 -3.7567832 -10.699693 11247765
-16.58147 -3.6003792 -10.778 10786690
-15.765276 -3.5436203 -10.843713 11182994
-14.549452 -3.5991101 -10.941305 10523270
55.657482 -3.6267741 -10.945944 9603961
56.439007 -3.2884769 -10.909986 10325890
57.292645 -3.5145533 -10.798902 10062714
58.238228 -3.5689507 -10.70947 10061170
59.196941 -3.6534388 -10.605895 11243379
60.634377 -3.3828278 -10.491573 10852736
61.599056 -3.4624496 -10.37845 10391669
62.916389 -3.3828957 -10.246508 9665383
63.934937 -3.5058398 -10.121271 10323043
-31.699839 -2.1582694 -10.019514 10850692
-30.578558 -2.574898 -10.078469 10655109
-29.555195 -2.6347558 -10.143009 12564133
-28.581905 -2.6573551 -10.190123 11903128
-27.841194 -2.4590726 -10.241672 11113352
-26.926491 -2.6606746 -10.257969 10521476
-25.848391 -2.6029668 -10.324858 10131603
-24.508955 -2.5029738 -10.424129 11376523
-23.426651 -2.4480894 -10.499194 10983561
-22.632494 -2.4936154 -10.535705 10720901
-21.36911 -2.4153173 -10.590501 11577495
-20.336157 -2.5760627 -10.62793 10394257
-19.546272 -2.463325 -10.680891 11181462
-18.951149 -2.9018402 -10.67998 10458244
-17.948582 -2.5759311 -10.768423 11643041
-16.381628 -2.6268666 -10.864334 10984335
-15.522512 -2.6788187 -10.922327 11514000
-14.862508 -2.2980139 -10.98784 11247507
56.697258 -2.4253759 -10.972032 10655635
57.441906 -2.5479765 -10.889477 11051154
58.478264 -2.5233061 -10.803882 10915713
59.471004 -2.5508826 -10.709915 11308148
60.274673 -2.6815617 -10.614581 10978936
61.34737 -2.3310041 -10.540929 10719624
62.419136 -2.349647 -10.421679 10519674
63.354469 -2.4406312 -10.305458 9272170
64.412033 -2.44153 -10.185534 10917507
65.646454 -2.063694 -10.083279 9336704
-32.242676 -1.1583517 -10.039229 9803655
-31.578178 -1.4595572 -10.079488 11377553
-30.251217 -1.5302906 -10.180886 10195330
-29.475378 -1.6412714 -10.227655 9801093
-28.521049 -1.5038869 -10.28687 11052694
-27.182701 -1.5105195 -10.352062 10392974
-26.380722 -1.5961071 -10.380877 10983561
-25.46089 -1.5404173 -10.437229 10786956
-24.600138 -1.5799632 -10.490769 9931390
-23.584839 -1.5073611 -10.557137 11311246
-22.464422 -1.5226858 -10.607553 11051155
-21.502375 -1.4970393 -10.645549 11704715
-20.553677 -1.5257854 -10.689931 10983825
-19.609554 -1.6551723 -10.727304 10593949
-18.371956 -1.5804472 -10.80267 10263180
-17.234545 -1.5149729 -10.876387 10722187
-16.398788 -1.4227047 -10.933095 11315097
-15.569085 -1.7874781 -10.965216 11509649
57.538239 -1.6441534 -10.969254 10985863
58.526421 -1.4755564 -10.900385 9538176
59.486061 -1.5191638 -10.815625 10258291
60.278095 -1.3784627 -10.754477 9865343
61.437012 -1.486113 -10.615296 9535345
62.454166 -1.3828344 -10.511981 9601408
63.599426 -1.3786043 -10.387283 11445402
64.683487 -1.4229635 -10.25952 10525066
65.227646 -1.3751826 -10.19968 9273725
66.380104 -1.5264786 -10.061294 10388849
-33.281841 -0.42145216 -10.01221 9803657
-32.497147 -0.49715352 -10.055398 10457219
-31.556206 -0.51542574 -10.118647 10391155
-30.536036 -0.5968318 -10.1903 9406844
-29.490507 -0.45965347 -10.273933 9998470
-28.504396 -0.47436246 -10.337427 10326665
-27.584843 -0.45499724 -10.387671 10589056
-26.603237 -0.4260321 -10.43796 9935494
-25.605274 -0.58802879 -10.480467 11245705
-24.559927 -0.45658088 -10.54665 10460305
-23.578327 -0.3280648 -10.606112 9603715
-22.634506 -0.56916732 -10.647491 10722700
-21.749765 -0.59942478 -10.679218 10258806
-20.512686 -0.3650969 -10.738682 10722958
-19.357191 -0.51527649 -10.787066 9803145
-18.308275 -0.65479398 -10.837416 10787989
-17.374786 -0.31250376 -10.906918 9998210
-16.539618 -0.62618124 -10.958028 11180685
59.105278 -0.57841325 -10.937542 9137509
60.292912 -0.13129306 -10.862464 6443846
61.406616 -0.41129363 -10.719036 9668487
62.273792 -0.67028737 -10.605719 12501180
63.429066 -0.49679875 -10.486209 8615542
64.672615 -0.63134623 -10.338024 8815741
65.513969 -0.55491239 -10.247308 8089691
66.511963 -0.62349772 -10.125216 9007214
67.418266 -0.51927787 -10.035408 8809322
-33.417778 0.50851512 -10.049716 9405559
-32.36953 0.50732452 -10.115137 9341055
-31.368349 0.29264817 -10.172538 9602426
-30.532066 0.65937364 -10.244604 9734266
-29.639427 0.6844759 -10.315578 8550519
-28.527189 0.3959299 -10.372177 9670529
-27.531387 0.56698555 -10.436869 12167321
-26.60552 0.37319419 -10.469346 9866887
-25.406326 0.46926242 -10.534269 9933704
-24.559458 0.4564085 -10.580986 9537917
-23.649996 0.71672523 -10.630383 10131592
-22.55699 0.72082919 -10.677485 10129538
-21.267586 0.41407844 -10.720735 10261383
-20.392469 0.56743431 -10.761487 10524813
-19.569992 0.35270357 -10.795737 11047559
-18.252483 0.25007713 -10.861873 9471871
-17.230947 0.41601098 -10.938215 8486006
-16.689383 0.54333729 -10.968411 9604479
60.025558 0.64222264 -10.943561 7235416
61.571251 0.73555875 -10.793203 8421503
62.580933 0.76805907 -10.681458 7695193
63.206982 0.44468629 -10.586863 7630945
64.366829 0.43598795 -10.457679 9466208
65.466034 0.3229115 -10.328327 7895929
66.617554 0.58624256 -10.20513 8948338
67.405228 0.50941491 -10.095861 7169879
68.13018 0.84183145 -10.014719 10330001
-33.6987 1.6112905 -10.051809 8878708
-32.465935 1.5180492 -10.127601 8550256
-31.27529 1.2428011 -10.204882 10524560
-30.57201 1.6095887 -10.250906 8288111
-29.515118 1.5517018 -10.329488 8812648
-28.407665 1.5155535 -10.398241 8353140
-27.378572 1.5707769 -10.454292 7893092
-26.279087 1.6486632 -10.502876 8881273
-25.381495 1.98304 -10.538105 8354928
-24.589668 1.3068478 -10.586992 10463122
-23.415659 1.5651855 -10.644733 8943978
-22.612129 1.5635775 -10.68417 8025969
-21.446331 1.3134429 -10.72732 9474431
-20.660711 1.5777972 -10.756688 7170145
-19.693012 1.37428 -10.794535 8811888
-18.503405 1.3311256 -10.853243 8880760
-17.410717 1.3660427 -10.919353 8880756
-16.700939 1.7265965 -10.969719 8483691
59.782726 1.8361573 -10.992332 7760739
60.468483 1.4616251 -10.932943 7169114
61.999714 1.5094371 -10.786512 7497044
62.933647 1.423803 -10.680005 7041875
63.564907 1.6875973 -10.608547 7039581
64.570236 1.3086298 -10.48255 9268314
65.625153 1.553493 -10.37361 7567470
66.58461 1.5986618 -10.255379 7829121
67.461967 1.5274754 -10.131485 7563876
68.501411 1.7684997 -10.005708 6841923
-34.099697 2.2188036 -10.006986 8023386
-33.324936 2.3580322 -10.04962 8482645
-32.35321 2.7304552 -10.082304 8482395
-31.395472 2.6810782 -10.143637 9142643
-30.585276 2.6178732 -10.204906 8484202
-29.404268 2.5114598 -10.293081 9342324
-28.485317 2.5717664 -10.340754 8549733
-27.001551 2.6815121 -10.409122 8086359
-25.77553 2.5852551 -10.479176 10325369
-24.522797 2.3251944 -10.558326 8087644
-23.505922 2.6080291 -10.599676 8749168
-22.482101 2.3468964 -10.661461 8944750
-21.54747 2.4465575 -10.696155 8484199
-20.500307 2.3584998 -10.741077 9010539
-19.522614 2.5176783 -10.778804 8748652
-18.621738 2.6636922 -10.817879 8551022
-17.690237 2.4277809 -10.876061 7891548
-16.512321 2.5502207 -10.954282 8288617
60.124481 2.4193058 -10.941785 8023646
61.158062 2.2987068 -10.858589 7300697
62.133568 2.47089 -10.767923 7365720
63.144127 2.5738635 -10.663817 7104089
64.450935 2.5627038 -10.528844 7959136
65.63633 2.5467184 -10.39963 6970704
66.650467 2.6338234 -10.271336 7893587
67.434982 2.4477425 -10.163605 7760211
68.272934 2.6476104 -10.057463 7035476
-32.699158 3.2942748 -10.0154 9405295
-31.526752 3.5305939 -10.067028 9404787
-30.8179 3.2727003 -10.141285 9207145
-29.457083 3.3791473 -10.213458 9800823
-28.651484 3.4377861 -10.254323 7958621
-27.498653 3.4281383 -10.312451 8748911
-26.054445 3.3716228 -10.397164 9141618
-25.213272 3.5379219 -10.421621 8879210
-24.352043 3.3911164 -10.484962 8352361
-23.694025 3.7641406 -10.485006 8483431
-22.619596 3.6716495 -10.556869 9206389
-21.521313 3.5933623 -10.608915 8748402
-20.580786 3.3880897 -10.668262 9471609
-19.527128 3.5168722 -10.722095 8814710
-18.620975 3.6318026 -10.771307 9865599
-17.510307 3.4692488 -10.848371 8487790
-16.402403 3.7097096 -10.903839 8748917
-15.612222 3.5700107 -10.968481 9275507
59.448627 3.7300479 -10.941051 6905421
60.183601 3.5466967 -10.893109 6905936
61.039707 3.1742299 -10.832963 6578518
62.035561 3.6924334 -10.732267 6773847
63.466568 3.4863935 -10.604122 7959398
64.587311 3.6532683 -10.480707 7169369
65.519096 3.5764835 -10.388734 7696475
66.327087 3.3278494 -10.30322 7894121
67.525375 3.3114357 -10.150386 7761759
68.033966 3.5954213 -10.085304 7236697
-30.575428 4.09128 -10.070331 7763564
-29.763947 4.5208435 -10.071646 7564646
-28.414774 4.1560774 -10.186309 9076336
-27.288443 4.9233069 -10.162841 8155749
-26.236826 4.3112903 -10.291015 8482151
-25.518478 4.6819143 -10.293344 10192239
-24.546572 4.4930429 -10.366461 7891805
-23.179605 4.5249524 -10.438728 8550775
-22.227613 4.5363736 -10.482058 8024940
-21.363539 4.4545112 -10.53837 8025185
-20.479794 4.2585282 -10.601129 8879986
-19.611942 4.4296031 -10.653806 9012337
-18.276798 4.5907736 -10.722621 8022379
-16.753172 4.5083637 -10.827906 10590345
-15.13658 4.3698568 -10.936286 8417648
58.803703 4.3085961 -10.967062 6446410
59.39579 4.5112395 -10.909891 6904909
60.383865 4.739018 -10.818748 7300181
61.361019 4.3665643 -10.758002 6379340
62.8368 4.292429 -10.625434 7037772
63.797054 4.6481161 -10.506177 6510150
64.425827 4.5251832 -10.451724 6380104
65.462296 4.5604606 -10.339737 6971734
66.340736 4.3679028 -10.24722 7037266
67.399063 4.6018834 -10.113876 7169882
68.504005 4.3129239 -10.004995 7760987
-29.229033 5.1475797 -10.032646 8812140
-28.374872 5.0652561 -10.087785 9148275
-26.238213 5.2289567 -10.1973 8089199
-25.645294 5.6139536 -10.189095 7563609
-24.784044 5.4523487 -10.258018 8222048
-23.850397 5.4131155 -10.305999 7037791
-22.62937 5.4366403 -10.371135 6905947
-21.58519 5.3823376 -10.427902 6841692
-20.542336 5.4056988 -10.486761 7038301
-19.544798 5.6672058 -10.536625 7630437
-18.677902 5.4612722 -10.617893 8287585
-17.542793 5.5542221 -10.671883 7563620
-16.372856 5.3862915 -10.761295 8484971
-14.507342 5.2656269 -10.888841 9206908
-13.509516 5.9872789 -10.86169 8487284
-12.777239 5.3216238 -10.983662 8352108
57.914108 5.8841558 -10.964715 6182470
58.577991 5.5846186 -10.924181 7233113
59.514858 5.3157272 -10.864969 6511440
60.19355 5.6712027 -10.78244 6378820
61.237881 5.6511288 -10.696911 6513233
62.087769 5.4136095 -10.636198 6709842
63.502407 5.6029449 -10.476703 6708047
64.422272 5.4007835 -10.392851 6709836
65.543571 5.6222816 -10.257464 6642767
66.316223 5.2363415 -10.197854 6708814
67.474411 5.5437508 -10.043618 6643022
-26.68334 6.2862086 -10.050323 8090988
-25.450611 6.5201302 -10.104204 7037531
-24.307226 6.470439 -10.172747 6444619
-23.261913 6.550602 -10.209684 7234912
-22.455875 6.4162292 -10.265951 7235420
-21.654821 6.4200325 -10.301509 6974301
-20.431379 6.4398141 -10.370425 7170399
-19.472023 6.5595827 -10.422491 6446674
-18.75074 6.340086 -10.504406 7038560
-17.952496 6.589304 -10.518198 6644056
-16.503954 6.3441839 -10.640479 8220762
-15.260469 6.453371 -10.69512 7694691
-14.002252 6.7424521 -10.724898 7169620
-12.501142 6.2949476 -10.865816 8155747
-11.47086 6.4879041 -10.900269 8092012
-9.9820442 6.619215 -10.960052 7760999
-8.2358303 6.9631305 -10.975904 7631460
58.173569 6.5334969 -10.901903 6116939
59.424641 6.4747162 -10.802258 6182218
60.456676 6.4806046 -10.710956 5854284
61.395298 6.58109 -10.619305 6314320
62.63868 6.1836443 -10.53347 6379848
63.404068 6.4518929 -10.434292 6315092
64.337738 6.5965014 -10.32448 6247502
65.478592 6.47404 -10.208873 6773839
66.493774 6.2871599 -10.115778 7300949
67.040993 6.696527 -10.015553 6904143
-26.020418 7.1033239 -10.004711 7364439
-25.110958 7.1531887 -10.051637 8025441
-24.213621 7.3116875 -10.073013 6905422
-23.36315 7.6972275 -10.060435 8221036
-22.460281 7.6667657 -10.109465 7826526
-21.402134 7.7827368 -10.151712 7630699
-20.437317 7.5209308 -10.23668 7435619
-19.666977 7.3803072 -10.298959 8617840
-18.377108 7.407248 -10.377266 6447953
-17.771381 7.9414334 -10.329944 10331521
-16.843948 7.5242987 -10.4513 7103324
-15.795755 7.4507933 -10.524359 7299674
-14.627795 7.6209273 -10.554309 6182728
-13.69177 7.4725285 -10.625011 7168602
-12.500998 7.4471436 -10.688255 7235163
-11.348845 7.4853864 -10.754642 7101522
-10.40119 7.2777939 -10.835609 7301215
-9.526989 7.3952017 -10.85569 7103324
-8.5316257 7.7558289 -10.821098 7237219
-7.4244766 7.7690587 -10.872933 7300956
-6.6269622 7.5302949 -10.957129 7893601
-5.830009 7.6845336 -10.976697 6052948
56.748615 7.4989586 -10.978209 6708558
57.504826 7.5347433 -10.898895 6445645
58.827885 7.7968044 -10.753518 5129792
59.752121 7.5923405 -10.69042 5589316
60.938099 7.4775968 -10.595077 5589324
62.457924 7.3004923 -10.471508 5788225
63.413582 7.5284338 -10.356304 6249036
64.461708 7.5401163 -10.247403 6576714
65.755333 7.6080518 -10.100438 6445901
66.476501 7.4099617 -10.032907 7235155
-21.741581 8.569849 -10.027161 6973791
-20.682011 8.4618673 -10.102812 7368805
-19.37101 8.5435658 -10.151463 6645847
-18.180197 8.5904894 -10.207085 7370611
-17.268265 8.595253 -10.250888 7430235
-16.472446 8.6150227 -10.290283 6708566
-15.634077 8.4377642 -10.367095 6314320
-14.518467 8.6449842 -10.37766 8287332
-13.581986 8.4668808 -10.456207 6577755
-12.617912 8.560338 -10.492991 6448476
-11.589222 8.449666 -10.57513 6248267
-10.568293 8.5186892 -10.609543 6909540
-9.3466244 8.5400143 -10.644598 6708307
-8.5185814 8.7004585 -10.637444 6248521
-7.545095 8.3947887 -10.743174 7500395
-6.4599714 8.4918842 -10.786301 6579544
-5.4908695 8.3801107 -10.861332 6644055
-4.5963469 8.5574474 -10.856518 7435369
-3.4875231 8.5307446 -10.909964 8746853
-2.3569963 8.769083 -10.931299 6909029
55.487144 8.6889896 -10.990463 7627354
56.824497 8.485033 -10.886261 6970964
57.662727 8.7308426 -10.776475 6774351
58.437878 8.4275274 -10.734344 6182474
59.448574 8.6463661 -10.626068 6246983
60.30352 8.5118122 -10.567278 5852992
61.301846 8.3749819 -10.490508 5984577
62.489189 8.4694252 -10.365097 6575692
63.765324 8.5171604 -10.231884 6576713
64.705688 8.4872513 -10.134213 6640969
65.555023 8.438921 -10.046436 6576202
-18.288652 9.3708744 -10.050011 6445907
-17.401007 9.5658092 -10.053824 6248016
-16.638138 9.5086765 -10.103786 6446676
-15.575113 9.4983187 -10.154525 6645354
-14.37648 9.7418489 -10.151917 6645084
-13.394192 9.7512093 -10.195616 6447178
-12.169548 9.5469236 -10.319777 6776915
-11.170033 9.6105642 -10.36693 6974312
-10.299546 9.6977997 -10.387683 6116170
-9.5302696 9.4424057 -10.46153 6313291
-8.0340166 9.5057621 -10.485174 6576713
-7.0682931 9.3982058 -10.544528 7631203
-6.3700666 9.6068239 -10.525092 6710099
-5.5068874 9.4759426 -10.608253 5526600
-4.4485607 9.7002954 -10.606295 6577236
-3.1016073 9.451272 -10.736666 7300440
-2.4062154 9.7987614 -10.686693 7101783
-1.4807966 9.2885742 -10.861542 6710111
0.14851952 9.8498316 -10.800085 6576980
1.9045241 9.6486254 -10.947609 6445134
4.246151 9.9181728 -10.987248 6512465
53.729031 9.9679823 -10.990263 6839376
54.75021 9.7178202 -10.935453 7236954
55.737442 9.5660896 -10.87299 10324852
56.386024 9.3810673 -10.831551 7828054
57.922192 9.478756 -10.674849 7299667
58.689987 9.5276833 -10.598966 7102289
59.49456 9.3811951 -10.544632 6773063
60.598984 9.4204006 -10.438976 6970702
61.536896 9.4657364 -10.346694 6643026
62.570099 9.6871576 -10.217536 6905679
63.661362 9.6448975 -10.113237 6905425
64.663055 9.2933846 -10.04964 7102032
-15.576238 10.073857 -10.022797 5393218
-14.496399 10.259197 -10.024811 6846317
-13.607015 10.426501 -10.024785 7560784
-12.789549 10.333287 -10.096058 5459522
-11.781355 10.525921 -10.104324 5985354
-10.565041 10.62801 -10.135813 6380112
-9.5139351 10.484629 -10.21174 5328454
-8.6294479 10.516882 -10.221024 5329482
-7.5268006 10.432725 -10.264071 6248526
-6.3530483 10.54854 -10.266452 5988174
-5.716897 10.541494 -10.302744 6249551
-4.8502121 10.544356 -10.346244 6314321
-3.6641207 10.1703 -10.522276 6249803
-2.8055573 10.474551 -10.473308 6183507
-1.6055018 10.59936 -10.505373 6708562
-0.77177662 10.483427 -10.576053 6577484
0.73195404 10.732072 -10.591416 6445647
1.5716531 10.427116 -10.728413 6445904
2.4480321 10.551021 -10.741826 6248782
3.2675734 10.61688 -10.761423 5854538
4.2059011 10.619852 -10.795865 6250834
5.362462 10.3232 -10.935328 5526090
6.4393282 10.608015 -10.923327 6117446
7.3965397 10.788891 -10.941029 5262399
8.3139048 10.859546 -10.998241 5197125
51.844593 10.919587 -10.951435 6838090
52.362484 10.502355 -10.998421 7035723
53.344872 10.600249 -10.921348 6906195
54.523834 10.625631 -10.830183 7168345
55.306416 10.475825 -10.778367 7563355
56.366398 10.456203 -10.687987 7498589
57.514267 10.353439 -10.597692 7891288
58.72567 10.664856 -10.44635 7102546
59.597321 10.531846 -10.387839 7036752
60.55267 10.458238 -10.308659 7233105
61.436264 10.525351 -10.212433 7101773
62.448441 10.456067 -10.119774 7167567
63.211559 10.553965 -10.021404 7169114
-8.6582136 11.061893 -10.06523 5394759
-7.5369864 11.250709 -10.02844 5985360
-6.6422601 11.120671 -10.100227 5659210
-5.1897879 11.301702 -10.106828 6511448
-4.3039951 11.379643 -10.12974 5591624
-3.6214674 11.706119 -10.068907 5854028
-2.4568288 11.407196 -10.226226 5919305
-1.3455844 11.488279 -10.259302 6380883
-0.33694392 11.353748 -10.349972 5987154
0.53120613 11.624053 -10.31848 5526861
1.428297 11.499951 -10.410514 5920332
2.5547307 11.393764 -10.502534 5656130
3.6231983 11.374204 -10.5677 5789261
4.4951878 11.439621 -10.584366 5854801
5.4605761 11.550763 -10.603034 5525062
6.6772609 11.509798 -10.687589 5920330
7.5793586 11.673518 -10.70938 5525318
8.416625 11.49745 -10.816235 5395535
9.5877037 11.801447 -10.809824 6183245
10.687134 11.705116 -10.884828 6380378
11.470582 11.626508 -10.939734 5789258
12.101171 11.755781 -10.926808 5657934
13.314682 11.975288 -10.893246 5855816
14.308713 11.79069 -10.999098 5132616
48.677013 11.947674 -10.906964 5853003
49.615273 11.671946 -10.92375 6183756
50.520405 11.57 -10.896667 6707270
51.398987 11.518364 -10.861248 6707021
52.524364 11.502848 -10.804417 6248780
53.435646 11.468481 -10.749779 6379343
54.548763 11.48141 -10.666274 6511434
55.698349 11.510216 -10.566416 6380624
56.209213 11.226451 -10.577498 6709849
57.118958 11.335142 -10.471169 7760475
58.261177 11.477808 -10.346175 6904654
59.525814 11.528025 -10.22408 6707782
60.508263 11.430254 -10.151049 7101519
61.435852 11.293879 -10.083906 7037009
-1.2308972 12.106327 -10.06939 6444873
-0.21991658 12.189674 -10.097034 5985347
0.64772916 12.514352 -10.048419 5986643
1.7826085 12.148329 -10.2281 5852743
3.3107684 12.590467 -10.173911 5655615
4.5827923 12.512383 -10.274006 5787717
5.7531233 12.686735 -10.282268 5525575
6.6597805 12.543481 -10.386198 6051409
7.4356041 12.439159 -10.47303 6050887
8.5393305 12.478058 -10.543674 5657419
9.5747223 12.459179 -10.618271 6051141
10.427135 12.461169 -10.655029 5788741
11.444643 12.246823 -10.744596 5394762
12.434796 12.428631 -10.710796 5329228
13.511376 12.655375 -10.66727 5787983
14.339313 12.589569 -10.724523 5722442
16.180254 12.581862 -10.802208 4738381
17.5075 12.540051 -10.875726 5923153
18.3859 12.577913 -10.905904 6913661
20.377659 12.662786 -10.9505 6710614
21.315796 12.761936 -10.948698 7698801
22.514936 12.813004 -10.97492 8683389
40.644188 12.985348 -10.912962 6839119
41.469666 12.651417 -10.968683 6049599
42.467621 12.690645 -10.910711 5525827
43.179161 12.79842 -10.861246 5657422
44.21125 12.839443 -10.812336 5327682
45.53986 12.541253 -10.861679 6706249
46.494335 12.599499 -10.822991 7365714
47.577202 12.65727 -10.764473 6380368
48.410992 12.432718 -10.792045 5656905
49.371304 12.407091 -10.754072 5721927
50.45134 12.533049 -10.675619 5919819
51.647789 12.643841 -10.573385 8152402
52.609539 12.365803 -10.591388 6050889
53.707119 12.543681 -10.474862 5656902
54.559902 12.479108 -10.435112 6379082
55.504547 12.59922 -10.327518 6970191
56.484894 12.423199 -10.290308 6773321
57.529327 12.442516 -10.188255 6707272
58.463879 12.552369 -10.084847 7561813
59.407845 12.196058 -10.085047 6707275
4.217473 13.242494 -10.007308 5853256
5.6592388 13.216292 -10.100739 5920592
6.4187155 13.456737 -10.062288 6182736
7.7026963 13.350642 -10.200123 5264715
8.5539436 13.542005 -10.214797 5591628
9.3519897 13.538182 -10.287225 6051149
10.347116 13.374116 -10.404223 5591110
11.413567 13.605889 -10.330739 5066053
12.437119 13.432206 -10.36751 5591371
13.665357 13.40239 -10.406859 5592139
14.532209 13.182818 -10.522211 5853765
15.715545 13.410925 -10.484716 5527625
16.720974 13.59281 -10.477938 5460557
17.658575 13.488381 -10.560684 7104096
18.461891 13.395903 -10.62351 11311504
19.336227 13.447474 -10.625835 6445655
20.553825 13.395519 -10.685715 6843236
21.500841 13.516507 -10.678315 11183522
22.678793 13.451484 -10.74481 14205359
23.788174 13.439396 -10.787737 7894133
24.733112 13.607224 -10.743954 10453356
25.613094 13.61446 -10.758642 8230772
26.468197 13.452989 -10.836893 11452353
27.486408 13.648399 -10.780766 9340299
28.226328 13.502812 -10.850661 8551283
29.508896 13.595497 -10.854166 9664884
31.092709 13.578014 -10.893781 7234129
32.434502 13.637629 -10.861238 7171152
33.81628 13.551142 -10.889143 6642258
34.805447 13.413844 -10.932238 6511432
35.702183 13.68738 -10.828463 7169878
36.61224 13.526607 -10.86795 8882053
37.465687 13.438914 -10.87447 8488581
38.409012 13.486632 -10.834827 8750709
39.540726 13.317986 -10.864232 10919328
40.511173 13.635615 -10.702237 9206651
41.425453 13.396062 -10.729933 7104600
42.542774 13.331444 -10.705144 6051403
43.42263 13.406011 -10.651896 5919820
44.458759 13.511616 -10.58604 5262657
45.536499 13.347403 -10.61552 5591628
46.61705 13.474876 -10.549168 6709331
47.663277 13.590751 -10.479126 5919563
48.690048 13.725311 -10.395972 6445901
49.407272 13.441973 -10.45199 5919302
50.466873 13.320684 -10.447512 6181960
51.383732 13.44054 -10.36178 6972750
52.372261 13.486712 -10.287321 6116683
53.439445 13.552017 -10.19641 6378826
54.62915 13.611859 -10.100245 7233612
55.569344 13.468138 -10.077223 6379598
56.144089 13.088978 -10.139734 7168596
9.6460247 14.164304 -10.111829 5657930
10.634502 14.390968 -10.074529 5130043
11.484655 14.325623 -10.100008 4934208
12.418224 14.218885 -10.089962 5459270
13.285696 14.027564 -10.160701 6183251
14.822409 14.15168 -10.159323 5197382
15.843503 14.34388 -10.143966 4736319
16.554869 14.630861 -10.067829 4212545
17.335703 14.638471 -10.110922 5131587
18.442595 14.373535 -10.260091 9207676
19.4821 14.620656 -10.181134 5262917
20.51729 14.36517 -10.307914 6053211
21.582781 14.59752 -10.249405 8157555
22.51269 14.689403 -10.241844 8555143
23.542 14.222589 -10.472947 7565930
24.540415 14.374634 -10.437855 7499630
25.575212 14.250703 -10.516161 10656399
26.607939 14.520566 -10.428854 10861746
27.472509 14.515766 -10.450523 13744816
28.527382 14.345047 -10.548059 13950676
