# .PCD v0.7 - Point Cloud Data file format
VERSION 0.7
FIELDS x y z rgba
SIZE 4 4 4 4
TYPE F F F U
COUNT 1 1 1 1
WIDTH 1115
HEIGHT 1
VIEWPOINT 0 0 0 1 0 0 0
POINTS 1115
DATA ascii
-14.406986 -16.563524 2.9084492 4279834391
-17.053936 14.707781 -3.9569945 4283254842
-16.6325 14.553148 -4.2862039 4283647539
-16.971355 14.90148 -3.5054879 4283384371
-20.986561 -3.6209581 -11.172573 4281741361
-20.260098 4.9392295 -11.279949 4284043854
-20.506172 4.4728203 -11.321234 4283780937
-19.597672 -11.736476 -8.3120117 4281214998
-15.114294 14.806185 -3.2547412 4283187508
-14.806559 14.749243 -3.2152753 4283318066
-14.655874 14.695656 -3.4160786 4283383345
-17.540447 -8.592124 -10.005733 4281610795
-19.531776 -9.6588745 -9.6113453 4281411877
-14.612816 -10.100805 -9.203373 4281346596
-14.983905 -9.9596872 -9.2759991 4281478687
-14.462547 -9.7520046 -9.4132671 4281216291
-15.690868 5.1573181 -11.142746 4285227359
-16.167328 5.8469596 -11.087229 4286610539
-15.363935 5.5169911 -11.077546 4285688414
-12.274722 13.840466 4.9472146 4281216043
-12.76822 14.127925 5.0215683 4281806119
-16.321676 13.948647 -5.3169203 4284308560
-16.001078 14.073865 -5.1351409 4284108611
-15.9266 13.879897 -5.4079609 4284240964
-12.748846 -13.595923 -5.7930865 4279571731
-13.335876 -13.494901 -6.0464416 4280227607
-12.694487 -13.249872 -6.3182583 4280359449
-14.641724 -16.671118 0.3366971 4280095765
-15.883385 -16.651165 0.28701401 4280029462
-13.539833 14.590365 0.77925444 4282463023
-11.801905 14.411399 -1.4788318 4282792755
-11.28897 14.300041 -1.4810028 4284106560
-11.491829 14.306434 -1.7828608 4284303168
-12.715168 14.545781 1.5389948 4281741869
-12.545005 14.558067 1.679358 4281741869
-16.515774 15.047126 -2.4260559 4283450683
-15.404552 14.849051 -3.3241487 4283121720
-15.074919 14.774508 -3.470727 4283187250
-19.842056 7.807169 -10.878029 4285951314
-19.082539 7.6873856 -10.869219 4286671965
-20.004639 8.7591362 -10.512085 4286409814
-13.743634 -16.335342 2.2865992 4279506192
-13.536282 -16.392275 2.3309016 4279244305
-13.726249 -16.313953 2.4403484 4279505682
-14.12137 -16.299931 2.8811245 4279638292
-22.088875 -10.080997 -9.5665798 4280359958
-18.94739 -11.755943 -8.2137384 4280887585
-18.289486 -13.249904 -6.6559658 4281148962
-14.745605 14.746245 -2.7573857 4283186994
-15.448416 14.891973 -2.8087506 4283253048
-15.314977 14.804647 -3.5115075 4283186742
-18.585251 -2.3685579 -11.287905 4280163872
-20.447824 -3.3664501 -11.218163 4281346597
-19.363388 -3.2666454 -11.206379 4280687386
-19.239403 -2.8651178 -11.259346 4280491292
-21.30077 -1.4969076 -11.389575 4282201648
-16.591621 13.519299 -5.893961 4285424474
-16.024046 6.5078597 -10.946928 4286151792
-16.379997 6.7538333 -10.933092 4286215528
-16.083378 6.8806791 -10.876313 4287068012
-18.971712 8.0979261 -10.720312 4285490769
-13.915665 -16.488501 1.6535439 4279964434
-15.127362 -16.180956 2.4515052 4279638033
-13.293922 -16.485077 2.1720128 4279374863
-13.239433 -16.463545 2.3306684 4279441169
-13.339598 -16.539877 1.9272671 4279440399
-13.571086 -16.424257 2.1051512 4279702285
-14.315287 -16.341455 2.0425038 4279178772
-14.171157 -16.385906 1.8502746 4279309071
-14.91247 -16.652555 0.7744751 4279506707
-15.311729 -15.966768 -1.7186351 4279439885
-13.022245 -16.785072 -0.22731638 4279570963
-13.410725 -16.727776 -0.24728441 4279046933
-13.338722 -16.668684 -0.40672779 4279046672
-15.682789 -16.67351 0.87229967 4279963921
-15.991994 8.9619112 -10.037967 4284766284
-16.118202 8.6893225 -10.217311 4284636232
-13.907557 -16.256536 2.8118844 4279571217
-16.766623 12.228 -7.2060781 4286606428
-18.914526 9.5150852 -9.9704514 4286476633
-18.503952 9.2528687 -10.11179 4287067232
-19.557945 9.2771978 -10.174191 4286476890
-16.360683 15.020847 -2.8041592 4283254076
-15.878123 14.905594 -3.3734121 4283122229
-16.151073 14.982955 -3.1048594 4283450680
-14.305125 14.767765 -1.8254852 4282661421
-13.710823 14.837907 2.4369569 4282201902
-13.091104 14.635736 3.1611557 4281347114
-12.907763 14.511833 3.4100022 4281412653
-13.192695 14.638165 0.1076808 4282266665
-11.851079 14.492621 1.9182692 4281674791
-11.767971 14.387979 1.6385493 4281412392
-12.066993 14.458691 1.6144013 4281937705
-11.834045 14.491691 3.2614827 4281608481
-12.106834 14.45805 3.3685389 4281608479
-12.68955 14.60797 3.1013923 4281938985
-12.565123 14.496884 3.3265076 4281938985
-13.335562 14.729527 2.9676161 4281871911
-11.932168 14.632519 2.5700841 4281477413
-11.587336 14.578821 2.5528507 4281411364
-13.523137 14.811464 2.4454069 4282331690
-13.614827 14.822155 2.5271511 4282201902
-13.376922 14.794547 2.4819622 4282331690
-14.919598 14.842251 1.8927155 4283052328
-13.844266 -16.248213 2.7814541 4280226837
-13.870457 -16.24791 2.7960796 4280226837
-13.857353 -16.249216 2.7375414 4280226837
-13.909667 -16.256327 2.6234813 4279374865
-13.103227 -16.935772 1.0255527 4280030740
-13.406572 -16.871559 0.91173553 4280293139
-12.954655 -17.031532 0.73978233 4279703831
-13.531432 14.653504 1.5929103 4282528818
-13.502906 14.593614 1.3170514 4282331179
-13.101587 14.644493 1.7679768 4282201905
-13.171247 14.579762 1.4804916 4281938987
-15.242011 -16.650476 0.88169146 4279834128
-15.885782 -15.616546 -2.4256644 4280293398
-15.410015 -15.757322 -2.1450987 4279898894
-17.567078 -13.489311 -6.19835 4280557856
-12.339869 14.531423 1.6780634 4281872171
-12.293886 14.468241 1.4540329 4281872171
-13.470701 14.794663 2.2935309 4282727471
-18.626257 -15.946367 -2.4445319 4280096531
-14.858224 -15.028557 -3.5719066 4280624162
-14.32362 -15.001782 -3.5996728 4280688657
-14.701059 -15.203028 -3.1842942 4280557599
-16.08923 -14.475516 -4.5775833 4280557596
-17.512323 4.5530415 -11.274189 4285227866
-17.167036 4.0745845 -11.281794 4284964700
-17.690639 3.9704058 -11.314753 4284898390
-20.05278 0.8333804 -11.459389 4282135598
-19.822697 2.0051157 -11.481903 4282927166
-19.509033 2.5511057 -11.485361 4283122752
-19.148447 2.0464532 -11.465029 4282006071
-19.405796 -2.3120418 -11.322658 4280490521
-16.937664 11.218399 -8.127243 4287591523
-17.299479 10.919244 -8.4817772 4286606940
-18.079311 -14.423211 -4.9425721 4280360482
-19.246269 -11.836321 -8.1934643 4281083676
-13.070749 14.530416 1.2717633 4282331945
-13.349361 14.703918 -1.5279469 4282792757
-13.871016 14.789926 -1.4588022 4282989872
-14.649214 -14.076705 -5.2069421 4280492572
-14.831665 -15.948434 -1.7208271 4279242255
-15.036832 -15.825431 -2.0087056 4279768337
-17.527077 -8.8848143 -9.8936901 4281740841
-17.347841 -9.2079515 -9.7506237 4281346597
-17.115181 -8.3162651 -10.090895 4281610544
-16.781109 -8.5330744 -10.000955 4281741359
-17.801138 9.1186914 -10.142654 4287133528
-17.584839 8.8974619 -10.243017 4286541396
-18.394489 8.9629107 -10.278941 4286736984
-16.495184 11.589651 -7.7528186 4286279261
-16.154142 11.111627 -8.1372471 4288184420
-16.960396 11.898956 -7.5052085 4286277722
-16.623295 14.259335 -4.8174253 4284109636
-15.376558 13.788732 -5.5081968 4285356879
-15.534018 14.024133 -5.1797385 4284436296
-14.929546 13.993832 -5.1632385 4284043076
-19.773354 4.8366642 -11.288206 4283912263
-17.041195 -5.8594723 -10.645216 4282202158
-17.226231 -6.2965245 -10.577808 4282464820
-17.874851 -5.7762151 -10.683501 4281808427
-16.028347 -14.056896 -5.2566686 4280491286
-15.417057 13.126054 -6.3258924 4286015066
-14.725021 12.902788 -6.5382991 4285817430
-13.911882 14.575872 -2.6146154 4283319091
-13.575882 14.537702 -2.3403363 4282923821
-13.248327 14.424047 -2.6334143 4282859322
-14.163465 13.881863 -5.2043672 4284304701
-14.616985 13.652755 -5.6220098 4285356881
-15.491444 14.677361 -3.9889512 4283121975
-14.965539 14.653355 -3.8876805 4283120435
-15.49995 -14.668479 -4.2362618 4279901722
-12.908896 -16.493481 -0.78928804 4279637015
-12.838967 -16.700094 -0.43415928 4279834134
-13.321304 -16.570221 -0.60320377 4279046675
-17.941404 -11.792444 -8.0934591 4280886043
-14.201305 -15.291486 -2.9644241 4280622874
-13.505272 -15.110495 -3.3011532 4280493087
-13.633921 -15.395942 -2.6641469 4280294161
-15.146284 6.0162997 -10.964784 4286737002
-14.980798 6.3404574 -10.8803 4285888101
-14.517735 5.9149947 -10.924226 4284964182
-17.564465 2.2821305 -11.40247 4282923821
-11.292442 14.42218 2.1406775 4281739299
-11.523659 14.402881 1.8911343 4281477928
-11.565297 14.497998 2.1427507 4281543461
-20.219997 0.033061378 -11.434531 4280889131
-19.49609 0.59279948 -11.442053 4280820518
-18.942976 1.6983585 -11.438559 4281347886
-19.30777 -0.03723558 -11.419941 4280951832
-17.519081 0.61887485 -11.368751 4281609516
-17.594517 -0.29313433 -11.341317 4281411359
-18.162285 0.10349011 -11.381726 4281082651
-14.26697 -16.478081 1.5370259 4279505938
-13.787426 -16.288576 2.5764248 4279374865
-13.826802 -16.248415 2.7717009 4280226837
-13.850765 -16.255274 2.667403 4280226837
-15.272661 -15.503578 -2.6017709 4280819488
-19.304127 -1.453528 -11.343004 4280490260
-19.43026 -1.8694867 -11.334616 4280424990
-15.172607 -16.473186 1.5971246 4279375634
-13.007974 -16.556803 2.1522717 4279506447
-16.101707 14.231902 -4.8673739 4283582530
-15.674208 14.367259 -4.6379709 4283450427
-15.630317 14.200251 -4.9045916 4283648318
-17.504131 10.592833 -8.8620043 4286149469
-16.993561 10.622765 -8.7482824 4286607966
-16.969187 10.352105 -9.0477009 4286344796
-16.666536 10.816721 -8.4948616 4288052839
-18.434689 9.7030144 -9.7919807 4287001185
-16.133049 13.29468 -6.1552167 4285424476
-16.108561 12.946158 -6.5348744 4286211672
-16.765474 13.004826 -6.48175 4286277981
-12.136669 14.402445 1.3062124 4282200874
-12.175833 14.38323 1.0518594 4282200362
-12.453106 14.454091 1.2307425 4282267180
-13.103127 14.735591 -0.5338769 4282726454
-12.398139 14.601982 -0.5403924 4282725932
-12.543221 14.708966 2.4178123 4281741097
-12.364323 14.687243 2.6360526 4281609509
-12.187466 14.664186 2.3994231 4281477413
-18.810438 -1.9622165 -11.309866 4280293914
-10.369312 14.264471 2.443253 4281214503
-10.209941 14.210017 2.4015846 4281083431
-10.312474 14.204068 2.3411641 4281214503
-12.883684 14.744512 2.4227476 4281873191
-13.187086 14.774048 2.5557022 4282004517
-12.759205 14.713577 2.2360806 4281740845
-18.909344 -5.6397476 -10.733807 4280625443
-12.039202 14.60082 2.9534135 4281608481
-12.004251 14.632016 2.7486992 4281476897
-12.373104 14.652668 2.8876972 4281871907
-13.741432 14.833262 2.6283617 4282201902
-13.894238 14.836188 2.7649164 4281742635
-13.103958 14.723351 2.0902781 4282266669
-12.688231 -17.014212 0.10889816 4279637522
-12.810506 -16.905657 -0.030247688 4279964947
-13.842866 -16.752449 0.066474438 4279309337
-13.552588 -16.806099 0.054110527 4279047194
-13.646467 -16.815992 0.21438932 4279112727
-15.499546 -16.648645 0.97429132 4279963921
-15.274857 -16.614048 1.1092701 4279834128
-13.591986 -16.848408 0.55874157 4279965201
-13.454408 -16.892214 0.39579725 4279768084
-13.37149 -16.920532 0.52433157 4280358680
-14.9169 -15.653191 -2.3102918 4280360223
-14.65498 -15.789567 -2.0230703 4279637516
-14.676582 -16.550476 -0.26149702 4279505427
-14.962457 -16.591297 -0.075199127 4279243797
-14.550218 -16.653278 0.72580528 4279702551
-14.246838 -16.677414 0.6337285 4280095500
-14.253524 -16.638985 0.94914007 4280161042
-13.835541 -16.248314 2.7765813 4280226837
-18.186865 8.7055378 -10.394084 4286605659
-14.557793 14.707439 -3.0971007 4283317810
-13.99684 14.56586 -3.053688 4283122482
-14.199768 14.610792 -3.2334108 4283514929
-15.323059 -14.977502 -3.666944 4280493078
-14.899782 -14.818601 -3.9788609 4280624164
-15.839474 -12.468684 -7.4332085 4281279779
-15.468353 -12.677633 -7.1950583 4280690464
-15.922209 -12.721723 -7.1453991 4280886563
-16.679989 12.730369 -6.7537203 4286278234
-13.30926 14.387737 -3.0494246 4282793268
-17.638908 10.212418 -9.2595158 4286476384
-16.807182 9.9505348 -9.4056015 4286344535
-13.657562 -16.223705 -1.0894618 4279178002
-14.128937 -16.222874 -1.0310755 4279243020
-13.945727 -16.042307 -1.3630848 4279374612
-15.697483 -9.9516344 -9.2822599 4281281569
-16.32782 -10.310296 -9.0908527 4281281311
-16.65332 -9.8916283 -9.3542252 4281215779
-17.551212 -4.2561903 -10.935429 4281478952
-18.08386 -4.0611634 -10.990793 4280622619
-17.604759 -9.858263 -9.4177952 4281015579
-18.124365 -9.572053 -9.5952568 4280755227
-19.306681 9.0193205 -10.313705 4286673245
-12.304344 -17.118845 1.0036092 4280098069
-12.557654 -17.012602 1.1631398 4279834892
-12.677547 -17.053823 0.9288044 4279834892
-13.049006 -16.759275 1.5086627 4279833616
-13.024841 -16.848793 1.3076696 4280030740
-12.878666 -16.851826 1.364398 4279768338
-13.688448 -16.655338 1.3870168 4279833102
-13.540239 -16.586117 1.6715031 4279440399
-16.248192 14.403772 -4.5794425 4283646779
-18.368671 -2.9035299 -11.217165 4280424976
-17.263294 11.592369 -7.7951179 4286540122
-14.240082 -16.624136 -0.17573261 4279701777
-14.176793 -16.57881 -0.35049391 4279439373
-13.749005 -16.674725 -0.25933552 4279243292
-13.539482 -16.765022 -0.10786343 4279046933
-13.912701 -16.677643 -0.18318939 4279309337
-18.230696 10.530509 -9.0131207 4286477922
-14.11882 14.534115 -3.6611695 4282661169
-13.850174 14.402456 -3.9568033 4282792768
-14.404631 14.551096 -3.8861656 4283120689
-13.733345 14.702182 -1.7847595 4282793008
-15.848325 -7.2873907 -10.346041 4282201131
-15.59248 -7.8386111 -10.204647 4282070832
-12.909322 14.53433 1.4376864 4282201385
-12.91597 14.573544 1.5890594 4282070572
-15.696659 8.3520126 -10.316916 4284963146
-18.385162 -1.720279 -11.312244 4280359958
-16.222889 0.60427296 -11.283061 4282728505
-18.517059 7.4274201 -10.917808 4287001948
-19.270535 -11.524035 -8.4279861 4280822561
-11.049688 -17.224108 1.6321318 4280556050
-11.53866 -17.105892 1.7386003 4280163353
-11.344212 -17.220896 1.39182 4280424463
-13.09643 -17.006588 0.46489239 4279966497
-12.548552 -17.140697 0.44370461 4279704338
-12.199486 -17.180956 0.82348394 4279967512
-12.022757 -17.191662 0.93505144 4280163614
-13.81022 -16.780371 0.41266394 4279571731
-16.950743 1.7737765 -11.359515 4283188037
-17.495958 1.4505556 -11.385601 4282396714
-18.917103 4.0620599 -11.359206 4284438098
-19.421625 4.4693294 -11.327614 4283912520
-18.281685 3.6779654 -11.362047 4284438095
-18.19313 4.5293112 -11.303167 4284964427
-15.831154 -11.904533 -8.0043182 4280886301
-16.394258 -11.768911 -8.1129885 4280886816
-13.670562 14.802277 -0.52580881 4282726960
-12.00392 -15.222663 -2.9896541 4280294170
-12.490446 -15.463118 -2.5226541 4279637782
-12.885505 -15.274899 -2.8853002 4280294942
-14.02183 -16.680622 -0.11189079 4279309337
-14.205164 -16.661537 -0.050900459 4279701777
-13.936773 -16.464811 -0.66145372 4279177742
-13.703221 -16.555971 -0.54899645 4279177486
-14.174649 -16.468039 -0.59507275 4279308814
-14.12879 -16.694607 0.066049576 4279702293
-14.410343 -16.654917 0.053324699 4279964178
-12.915767 -15.876177 -1.77841 4279637266
-13.446026 -15.986615 -1.4949789 4279571733
-13.30209 -15.750493 -1.9395285 4279833878
-15.945872 13.63518 -5.7450781 4284898382
-18.96582 10.354197 -9.2592878 4287133795
-14.814076 -16.414972 -0.59257841 4279373836
-19.385303 -1.0338161 -11.374016 4280557850
-16.029646 -0.55809647 -11.261592 4282268210
-15.686636 -0.95076442 -11.234056 4282596925
-9.4010029 -14.45441 -4.1491895 4280427027
-9.0823936 -14.497024 -4.0700197 4280295958
-9.2350082 -14.701458 -3.8057888 4280230174
-14.746797 -15.411973 -2.7285895 4280885276
-15.04001 11.829714 -7.4902892 4286541403
-14.71965 12.158444 -7.2106295 4286277460
-14.487869 11.794607 -7.4853997 4286672220
-19.278809 -0.6182121 -11.397032 4280818964
-13.694718 14.123314 -4.6366534 4282727989
-13.875778 14.09361 -4.7551341 4282925367
-14.044008 14.214476 -4.5461183 4283055928
-14.736509 14.672108 -3.6625423 4283186226
-15.142479 14.743488 -3.6525912 4283186741
-15.268219 14.285094 -4.7296939 4282859580
-14.921264 14.282044 -4.6826482 4283187260
-12.808962 -16.789415 1.5494499 4279768338
-12.741154 -16.874041 1.3649483 4280030741
-12.621214 -16.843626 1.5175614 4279834128
-12.612725 -16.719608 1.8583674 4279834128
-12.346792 -16.612814 2.4143817 4279770130
-12.711163 -16.600319 2.1923947 4279506960
-15.091666 -15.157088 -3.3103981 4280296731
-15.631375 14.820062 -3.6066542 4283121720
-15.375948 14.745223 -3.7630134 4283121976
-16.347368 12.018863 -7.3739719 4286606172
-15.268009 14.154811 -4.9522357 4283516225
-12.9055 -16.546227 2.4175763 4279506963
-13.034176 -16.542629 2.1870871 4279506447
-10.159131 13.868878 1.5561643 4281477416
-10.183068 13.848149 1.4316688 4281477416
-10.316246 13.885339 1.500102 4281805610
-11.602721 14.436217 3.3692122 4281215258
-11.377949 14.389879 3.485517 4281410326
-11.382317 14.46508 3.2505145 4281344797
-11.97559 14.562866 2.0630636 4281675304
-11.91017 14.574057 2.1594791 4281543206
-11.825005 14.541655 2.1075335 4281674791
-13.477337 14.805339 2.5685782 4282331690
-11.591816 14.499109 3.1823125 4281476381
-10.389204 14.410593 2.7737842 4281149474
-10.33232 14.325523 2.5697579 4281148708
-10.694704 14.434938 2.6774654 4281214239
-13.671713 -16.325565 2.5177448 4279505682
-11.372524 14.137286 1.0186429 4282396968
-11.590765 14.208414 0.81099129 4282331945
-11.793819 14.279556 0.99968004 4282660138
-16.940714 -13.656695 -5.9141855 4280819238
-13.349328 -10.091343 -9.2382765 4280558614
-13.781216 -10.299479 -9.1253786 4281018401
-13.759855 -9.7605286 -9.4264908 4281149990
-16.936024 13.247698 -6.2178841 4285491295
-16.541941 -12.735365 -7.1267543 4280558624
-14.550688 14.496306 -4.1260734 4282989359
-14.125093 14.416806 -4.100709 4283382582
-14.194847 14.382152 -4.245398 4283382582
-15.467946 14.890062 -3.0898342 4283253049
-15.061996 14.815605 -3.038229 4283252785
-14.674925 14.414686 -4.3673458 4282924595
-19.780523 -5.1372967 -10.827449 4280294684
-18.246441 -5.1486864 -10.808118 4281017886
-16.306129 -5.5282269 -10.669049 4281873714
-17.408344 -5.3117762 -10.739723 4281742382
-16.911402 -4.7093334 -10.826372 4281873453
-19.287762 5.8094478 -11.21827 4284175443
-19.300173 5.168622 -11.2682 4283584326
-17.671198 6.1975613 -11.141558 4285358164
-18.087738 5.9724703 -11.185417 4284832336
-11.954552 14.39119 -1.7722521 4283055153
-13.366686 14.649385 -1.7629619 4282727214
-17.191843 -8.0010662 -10.193714 4281873711
-16.390877 -8.1196041 -10.131205 4281742377
-17.511635 -6.7782717 -10.504548 4282268982
-16.68856 1.4570121 -11.334702 4283255102
-17.1581 -11.664105 -8.1907902 4280953119
-14.161354 -12.517588 -7.2987628 4280493599
-14.250708 -12.696737 -7.106338 4280886046
-14.475534 -12.60568 -7.2236691 4280690211
-14.586452 14.739592 -2.2671342 4283121715
-15.764746 14.928193 -3.1708603 4283385145
-16.022366 14.982433 -2.9359331 4283319868
-15.771399 14.955829 -2.9371963 4283254074
-14.339258 -11.006044 -8.6947365 4280885532
-14.527138 -10.741409 -8.8520689 4281344796
-14.184694 -10.56904 -8.9603004 4280624672
-13.419584 -16.414734 -0.84394693 4279243539
-15.389136 14.793558 -3.6030421 4283186742
-18.069283 2.9884784 -11.398106 4283779650
-16.700314 -1.9401892 -11.22373 4282531128
-15.488787 -0.25292772 -11.242931 4283185208
-14.973455 -0.58727831 -11.215655 4282664257
-18.208786 -3.5091383 -11.102888 4280426522
-18.905041 -3.3501968 -11.163322 4280688921
-16.603304 12.497641 -6.9602547 4286868569
-15.345558 13.484272 -5.9181414 4285358674
-15.247995 -5.3217354 -10.686052 4282137650
-15.07695 -6.1504517 -10.547191 4282136370
-11.571009 14.318198 0.12619591 4282594090
-11.778405 14.31193 0.4523077 4282464302
-11.195597 14.155072 0.41211176 4282528038
-12.081697 14.504853 -0.29988146 4282398764
-15.771544 12.224962 -7.1880884 4286475097
-15.330533 12.061444 -7.3179679 4286475094
-18.306664 10.237486 -9.3071642 4286674015
-18.024208 9.5132599 -9.8939571 4286608479
-16.07921 -12.904901 -6.9304657 4280886298
-15.716946 -12.948019 -6.8756742 4280755222
-9.5666904 13.818199 5.2229428 4281148964
-9.3200378 13.785079 5.1320348 4281345829
-9.3067884 13.703604 4.8907995 4281280805
-8.4032087 13.569421 4.8502278 4281412131
-8.2285728 13.448695 5.0423908 4281412131
-8.0408878 13.501635 4.8030748 4280226837
-10.199522 13.701034 5.6099935 4281214752
-10.184376 13.808979 5.6348748 4281214752
-10.031433 13.680399 5.4806709 4281280030
-10.065878 13.290735 5.2630172 4281346334
-10.002672 13.346087 5.3340187 4281346597
-9.9132261 13.401902 5.2263794 4281346597
-9.5814943 13.607706 4.421412 4281083422
-9.7167368 13.512529 4.5709219 4281346335
-9.5640364 13.553556 4.5973558 4281083422
-9.4070053 13.626507 4.6514139 4281213985
-9.6229753 13.500863 4.8415885 4281280551
-9.5423927 13.611513 4.9835896 4281280301
-13.860361 10.793132 -8.0843601 4286738525
-13.499882 10.462682 -8.2729549 4286277203
-14.158749 10.376645 -8.4869738 4286937184
-14.308085 14.25395 -4.5685701 4283121712
-14.652883 14.28838 -4.6124043 4283580467
-12.556369 -16.56568 2.5303934 4279704339
-12.787642 -16.56031 2.3827953 4279506963
-12.359568 -16.771091 1.9435484 4279834128
-11.046168 14.497017 2.8672724 4281279776
-11.168293 14.508442 2.5868192 4281869860
-11.829443 14.576014 2.2424335 4281674021
-12.045521 14.610702 2.2034998 4281609514
-11.872575 14.346008 1.3700476 4282396201
-11.656518 14.294372 1.4503546 4282265388
-11.704453 14.277567 1.30334 4282265388
-13.790846 -16.721416 1.0409665 4280030223
-14.061667 -16.581831 1.2915082 4279964434
-11.189977 14.458192 2.3439126 4281869860
-14.716828 13.297373 -6.1011033 4285488980
-13.070526 14.573561 0.40981531 4282201386
-12.780304 14.507581 0.6437273 4282266923
-13.493914 14.634335 0.34779596 4282200360
-12.736875 14.500928 1.3369656 4282267180
-13.738499 -15.857206 -1.6932383 4279768596
-14.163786 -16.360439 -0.78297424 4278981134
-13.858256 -16.37862 -0.80979395 4279177486
-8.5775337 13.785696 3.3439474 4280952353
-8.4357147 13.758421 3.5164356 4280952353
-8.3308115 13.685512 3.2545552 4281149222
-13.037802 -16.203897 -1.2312441 4279505685
-14.728971 -16.623867 0.056421757 4279767834
-13.517118 14.607362 -2.0314646 4282727214
-13.204865 14.485994 -2.269722 4282924093
-12.733268 14.341006 -2.5708394 4282792503
-13.757759 -16.615267 -0.39930582 4279178005
-11.20854 -17.116518 -0.13133669 4279245330
-11.457281 -17.159508 -0.042590141 4279571988
-11.535946 -16.998266 -0.22782898 4279769616
-14.220538 14.100294 -4.8393564 4283450935
-13.663841 13.922147 -5.0284295 4283515448
-18.321198 7.8919053 -10.761311 4286870107
-17.696781 7.6052523 -10.806366 4286671961
-13.15753 -16.835543 -0.078808784 4279571217
-12.774654 -16.540791 2.651767 4279506963
-11.699507 -17.206221 0.078434944 4279833616
-11.566307 -17.356728 0.34057331 4279703315
-12.068331 -17.20793 0.21794558 4280095759
-12.59052 -16.928392 1.3281603 4279833358
-12.398472 -16.962219 1.4061074 4279834892
-12.488031 -16.897778 1.4905181 4279833358
-19.07543 1.0764554 -11.437217 4281083426
-18.861954 1.4212624 -11.431284 4281411106
-19.959602 1.4460971 -11.469305 4282990651
-13.290922 14.029041 -4.6705208 4282269237
-13.649021 14.181189 -4.453465 4282924858
-13.286732 14.124199 -4.4188719 4282727985
-15.37613 -13.568622 -6.0474176 4280427027
-12.794736 14.498222 -1.9457793 4282989105
-13.159222 14.560064 -1.9639091 4283055159
-13.551468 14.440445 -3.2791142 4282596144
-12.573034 14.460661 0.93382359 4282201131
-12.3237 14.560629 -1.1856313 4282595630
-18.909184 0.68294311 -11.439005 4280819486
-18.594631 0.37944394 -11.423254 4281082651
-12.178141 -16.965725 1.636631 4279901202
-11.98844 -16.948439 1.9964983 4279573010
-12.184886 -16.865614 1.9096265 4279637264
-12.893765 -16.942043 1.1341105 4280030741
-12.784713 -16.925961 1.247025 4280030741
-17.534325 -3.6859543 -11.040077 4281544229
-17.56769 -3.0444145 -11.154167 4281412902
-16.825535 -3.2788546 -11.071505 4282333501
-18.067173 0.97961104 -11.414179 4280885794
-18.47522 0.96102381 -11.426611 4280623892
-18.370979 1.4485302 -11.434653 4280755234
-18.169903 -0.97792536 -11.3319 4280492571
-18.621235 -1.3452146 -11.332544 4280360480
-18.833189 -1.05505 -11.348927 4280426012
-18.946987 -0.75155431 -11.374378 4280753946
-18.785967 -0.29129601 -11.403275 4280426002
-16.018747 -4.8724718 -10.76285 4282399020
-16.510172 -11.448246 -8.3682327 4281149726
-18.81321 4.8509903 -11.292099 4284174664
-16.702045 7.8697176 -10.630445 4285096019
-16.443977 7.3791533 -10.773483 4285950819
-17.135536 7.223927 -10.88052 4286017890
-17.646435 9.3051863 -10.013092 4286673749
-16.963217 9.1259604 -10.057612 4285687127
-14.078414 -0.93410343 -11.164572 4282271037
-13.751448 -0.58522737 -11.18112 4283123519
-13.587311 -1.0494379 -11.144225 4282597691
-18.34828 -1.5189322 -11.311909 4280556824
-18.086626 -1.3130533 -11.319416 4280492573
-10.229337 14.068592 2.0826364 4281279781
-10.380029 14.156088 2.2006907 4281215015
-10.222914 14.139627 2.256753 4281083431
-11.237752 14.347346 1.9940104 4281739299
-14.944525 0.96450222 -11.237075 4283188034
-14.497826 1.5958549 -11.229704 4283518026
-14.414399 1.1127253 -11.23438 4283189571
-12.232496 -17.053564 1.3155007 4279901202
-11.99016 -17.140966 1.1974888 4280163611
-11.942364 -17.055557 1.6094542 4279900696
-10.33217 -17.078405 2.5037103 4280228374
-10.833988 -17.093801 2.2412968 4280031503
-10.390834 -17.203583 2.114109 4280162843
-16.269283 -12.586852 -7.2979255 4280755739
-13.9646 -13.066754 -6.6683922 4280623137
-14.150207 -12.87095 -6.902257 4280820256
-13.816336 -12.883476 -6.8784442 4280950818
-13.684322 -14.824376 -3.8943615 4280229905
-14.349947 -14.68005 -4.207293 4280558104
-14.382837 -14.343797 -4.7654386 4280295452
-14.510317 -12.801836 -6.99473 4280557593
-14.90754 -12.67661 -7.1753569 4280493605
-15.171821 -12.33651 -7.553093 4280429090
-14.471534 -12.073465 -7.8223777 4281017367
-14.530226 -12.392108 -7.469625 4280756767
-16.340574 -13.73359 -5.7814445 4280818968
-15.79284 -13.759004 -5.7435846 4280688927
-13.140717 -15.51456 -2.3938475 4280030736
-16.20484 -4.2580724 -10.883205 4282006579
-18.646072 1.5823696 -11.437767 4281281835
-18.669708 1.2201523 -11.43154 4281081887
-17.152033 -11.078918 -8.6227798 4281149213
-16.805429 -10.641816 -8.893177 4281215774
-14.527419 -10.427668 -9.0231724 4281346077
-11.552317 14.542939 2.3496833 4281673765
-17.940411 6.9250913 -11.002897 4285753424
-15.862711 11.860236 -7.487361 4286475866
-16.232168 12.365764 -7.0723219 4287195996
-15.814259 11.51856 -7.7626891 4286541149
-15.532396 11.236829 -7.9700131 4286608226
-15.988878 9.9320145 -9.2731247 4287198814
-13.747072 -12.050241 -7.8177786 4280427291
-13.347898 -11.83499 -8.009903 4279900440
-13.197124 -12.097468 -7.7550001 4279900950
-15.727179 -8.4649162 -10.002114 4281611308
-16.571285 -8.8831539 -9.8641167 4281544494
-16.698734 6.8966522 -10.932511 4286606945
-16.414536 6.4165945 -11.008443 4286870892
-17.032131 6.4597797 -11.048681 4286213995
-10.085771 13.473856 5.4492178 4281280543
-10.21031 13.588806 5.5930028 4281214239
-10.064044 13.572656 5.4655423 4281214753
-13.584229 6.3142829 -10.717187 4283977546
-13.090804 6.0599804 -10.710299 4284766802
-13.701674 5.9629788 -10.817645 4285096020
-17.56583 5.6236014 -11.207625 4284634702
-12.186653 14.389705 0.74519825 4282463015
-14.474771 14.67217 -3.2758856 4283449392
-11.76088 14.415004 -0.13374758 4282660910
-12.905918 14.456911 -2.1850123 4282989627
-18.674824 6.0388145 -11.192001 4284372046
-17.996771 8.4846134 -10.479813 4285623386
-18.847858 -1.6493949 -11.321834 4280032024
-18.425613 -0.58087128 -11.367321 4280883986
-14.580122 -1.1183164 -11.177165 4283057224
-15.227987 -1.347279 -11.183929 4282991169
-17.009527 9.5075016 -9.7997761 4286410592
-9.8759956 13.418218 4.759438 4281608737
-9.7494602 13.445662 4.7803316 4281346335
-9.3415346 13.754859 4.1916862 4281410849
-9.1407995 13.836545 4.0366702 4281411362
-9.4157486 13.839344 3.9750085 4281410849
-9.8544178 13.946366 3.7820745 4281017121
-9.8326492 14.079842 3.5516343 4281214242
-10.090158 14.059313 3.6447473 4281017121
-11.79172 14.284744 1.2289524 4282790441
-11.623645 14.235586 1.2232881 4282660138
-10.847382 14.41704 2.4865036 4281280033
-10.91495 14.391418 2.3455095 4281280033
-11.333639 14.288327 1.7620029 4281608230
-11.364081 14.235103 1.5855341 4282069544
-11.532207 14.312017 1.6315622 4281477928
-11.348659 14.154172 1.36871 4282396968
-11.453511 14.227849 1.4665756 4282069544
-11.278854 14.16107 1.4730339 4281936674
-11.540731 14.215742 1.3311443 4282331945
-9.5868931 13.761627 0.34737563 4282529328
-9.1197281 13.654074 0.11960793 4282792241
-9.5780087 13.826249 -0.35591841 4283318329
-9.6034927 14.086244 3.428576 4281280034
-9.5794764 14.006 3.6373363 4281280034
-9.3480978 13.993678 3.4776149 4281411358
-11.038995 14.21882 1.8398156 4281017637
-13.55148 14.814285 2.3740959 4282727471
-11.154915 14.377619 2.141717 4281410851
-11.023908 14.322909 2.0902934 4281410851
-11.065488 14.393346 2.239996 4281410851
-10.520185 14.255643 3.4449363 4280885019
-10.712273 14.3257 3.3866668 4280885019
-10.642396 14.234713 3.5136814 4281147926
-9.8567209 14.241802 3.1975179 4281214498
-10.059711 14.319877 3.0990605 4281214498
-10.085908 14.266232 3.2993832 4281214242
-14.51944 -16.617821 -0.081271172 4279767315
-11.185212 -17.113445 1.9819572 4280030222
-11.673768 -17.159458 1.3541853 4280228117
-11.745617 -17.224735 1.042295 4280294420
-12.346268 -16.880335 1.6619799 4279637264
-13.670649 -16.80356 0.76563215 4280161296
-12.376273 -17.145569 0.8138299 4279769871
-10.238813 -14.689844 -3.8395851 4280294428
-10.511808 -14.275644 -4.5011182 4279703311
-10.029488 -14.425555 -4.2291265 4280032016
-12.379796 -14.116064 -4.8753228 4279638548
-12.421448 -13.796646 -5.3872452 4279374604
-11.751493 -13.872038 -5.191052 4279440140
-11.223894 -16.986259 -0.30512571 4279178772
-11.145423 -16.838402 -0.49585819 4279900187
-10.955484 -16.973761 -0.35802031 4279768588
-11.9507 -16.836592 -0.37904119 4280424463
-12.068471 -16.957405 -0.17721367 4280031503
-12.354435 -16.826332 -0.30229139 4279834643
-11.869945 14.478315 -0.49445248 4282530098
-11.684454 14.419714 -0.32517481 4282530098
-11.43776 14.364233 -0.41557693 4282660913
-9.8978186 13.459712 4.6169376 4281346335
-10.126886 13.309926 4.9277525 4281412386
-9.6666393 13.731053 4.1433229 4281214238
-9.5968475 13.817347 3.999856 4281410849
-9.767067 13.821254 3.9821172 4281214238
-9.8937588 13.54717 5.3197551 4281280034
-9.9918842 13.458314 5.3510089 4281346597
-9.4396954 13.656749 4.4076586 4281279770
-9.5422506 13.684724 4.2644649 4281214238
-11.053556 14.25881 -0.54582596 4282793267
-10.992525 14.205696 -0.12778711 4282792492
-13.947038 14.658013 -2.1460009 4283317553
-15.779221 -11.333183 -8.45648 4281476901
-15.122214 -11.543706 -8.3011665 4280952083
-15.818261 -11.645302 -8.2122297 4280755232
-12.404724 -16.62785 -0.62208176 4279965203
-15.076334 -15.31046 -2.9721112 4280688667
-13.668331 -16.491631 -0.67244387 4279177486
-10.234037 13.769999 4.1110024 4281278746
-10.314684 13.601543 4.3802943 4281607708
-10.17941 13.657398 4.2726874 4281278746
-10.09443 13.886313 3.9073381 4280951836
-9.9612608 13.795163 4.0246334 4280951836
-14.830958 -12.990253 -6.8060937 4280688922
-15.824392 -12.180384 -7.7403646 4280951073
-11.529732 14.197683 1.1255937 4282331945
-11.41191 14.160488 1.2553163 4282331945
-11.162827 14.211144 0.12094688 4282660391
-11.409436 14.321325 -0.13834572 4282726188
-10.348613 14.019605 -0.078457832 4282990385
-10.48378 14.1071 -0.75305653 4283056178
-13.526029 -12.996484 -6.7459645 4281079323
-14.094924 -14.097379 -5.1574731 4280295454
-13.874679 -13.829558 -5.5890627 4280163096
-13.540714 -14.03094 -5.2124839 4280228626
-10.168808 14.198208 3.4599981 4281017121
-10.321549 14.15103 3.5566778 4280885019
-10.517799 13.879271 4.0108185 4281607708
-10.415156 13.744923 4.1974068 4281607708
-10.314878 13.947641 3.859993 4281147926
-11.929239 14.332394 1.1663327 4282396201
-11.743675 14.269161 1.1307178 4282660138
-13.820275 10.195617 -8.5950146 4286674529
-14.130014 10.107088 -8.737608 4287594595
-11.530188 -17.038912 2.326684 4279835936
-11.744104 -17.018316 2.4559731 4279967252
-11.842266 -17.000032 2.2798173 4279507478
-10.39936 -17.313715 1.7934768 4280097302
-10.024044 -17.336561 1.9532483 4279835151
-12.180744 -16.751186 2.2223508 4279898638
-12.390954 14.426294 -1.9801359 4282858042
-12.51301 14.370655 -2.2590747 4282858042
-16.541126 4.42521 -11.23484 4285227866
-17.047413 4.4464846 -11.259894 4285293922
-17.082893 4.9749293 -11.231832 4285557089
-16.451092 -6.7809143 -10.471897 4282399022
-10.870092 13.396472 -5.0604744 4283647285
-11.276018 13.465531 -5.1529565 4284039733
-11.295874 13.592384 -4.8834934 4283580982
-13.669243 14.444499 -3.4900947 4282596144
-14.153875 14.589253 -3.396904 4283122482
-13.87014 14.524687 -3.2977295 4282728747
-11.718679 14.299804 -2.0658779 4282857525
-11.567889 14.202266 -2.4296713 4282791729
-12.063421 14.318038 -2.232337 4282857777
-9.7385941 13.60182 4.3658385 4280951836
-14.118733 13.156714 -6.2168241 4285816916
-14.079823 13.410265 -5.8857584 4285356879
-14.995309 14.193093 -4.8544226 4283516735
-12.533735 12.564461 -6.5660057 4285092934
-12.837163 12.658738 -6.5370007 4285290571
-12.65184 12.765098 -6.3919458 4284896072
-9.9676733 13.545301 4.4490452 4281346335
-10.209869 13.47623 4.5705838 4281608737
-10.113781 13.351017 4.7657466 4281412386
-10.865067 14.365623 3.3788843 4281147926
-10.808289 14.287505 3.4821768 4281147926
-10.74281 14.274029 3.4766474 4281147926
-16.060673 -2.2198832 -11.159609 4282859821
-16.810925 -2.6143568 -11.161692 4282201902
-15.480713 11.765049 -7.5602436 4286738006
-13.684619 -14.255513 -4.8501787 4280098576
-13.756999 -3.710186 -10.900602 4282201903
-14.439974 -3.7514229 -10.912603 4282265902
-14.449191 -3.2564361 -10.980407 4282137914
-15.482244 5.9388709 -11.011003 4286739048
-15.130718 5.7557683 -11.013568 4286212703
-15.630466 5.7902679 -11.047716 4286345830
-15.284772 -10.273417 -9.0903521 4280690972
-12.301712 14.507565 -1.5553665 4282726968
-12.824758 14.292332 -2.9387493 4282530353
-12.726341 14.19849 -3.3348708 4282332977
-13.521843 -12.739459 -7.0514536 4280686626
-14.483517 -13.774923 -5.7164168 4280557334
-12.827192 -14.022814 -5.0835671 4279769877
-16.231209 -6.2548451 -10.560846 4282399791
-15.076008 -9.4386902 -9.5747957 4281412379
-15.713576 -9.0235415 -9.7815762 4281152040
-14.670719 -8.7654324 -9.8885689 4281610798
-17.703144 3.4328754 -11.346525 4284110668
-13.622515 12.5175 -6.8122773 4285685073
-13.815018 12.859691 -6.5077262 4285751895
-13.179852 12.729969 -6.5367937 4285422416
-12.960472 13.438756 -5.6663876 4283712564
-13.22648 13.30808 -5.8938894 4284435515
-13.488533 13.445243 -5.7506552 4284240191
-16.861961 -3.9473426 -10.958775 4282071350
-15.989494 -3.5488884 -10.984078 4282530870
-15.293466 8.7564888 -10.05456 4284568649
-10.607043 14.218076 2.1826067 4281215011
-10.473994 14.244093 2.3382545 4281215011
-16.92358 -10.271607 -9.1329288 4281281818
-15.380342 0.3867726 -11.246603 4282466357
-14.967705 0.18601361 -11.241932 4282793784
-11.724653 14.543967 2.2051229 4281674021
-13.005836 14.741299 2.2861109 4282004778
-14.411951 -13.04135 -6.7110891 4280819740
-15.022091 -11.226895 -8.5386639 4280755494
-14.338892 -11.446196 -8.3772984 4280492317
-15.952307 -13.456347 -6.1995111 4280688402
-16.242973 -12.769847 -7.0829225 4281018143
-18.752827 5.5232487 -11.23895 4283450682
-16.062229 -2.8355837 -11.088091 4282989877
-15.595624 7.7969732 -10.534691 4284766540
-14.833989 11.134702 -7.9684362 4286935398
-15.141527 11.02436 -8.0861044 4286937956
-15.10917 11.315567 -7.8701172 4286804069
-12.972857 -16.653572 1.8274503 4279702540
-10.741179 14.170577 -1.2973213 4283582267
-11.374262 14.344795 -1.0808597 4282859576
-11.709241 14.015211 -3.3762665 4282396715
-12.342319 14.163994 -3.0977349 4282267694
-12.032619 14.209371 -2.6876979 4282267436
-13.705311 -12.4953 -7.3235202 4280099368
-14.021851 -12.286413 -7.5665255 4280625190
-13.465424 -12.272609 -7.5754414 4280162584
-16.605007 10.50997 -8.8090582 4286936423
-9.7408924 13.488744 5.1024623 4281281321
-9.8411312 13.388534 5.0275736 4281478182
-16.012009 9.2706738 -9.834094 4285029712
-11.198013 14.099818 1.3319147 4282396968
-11.119493 14.098142 1.4520526 4282330410
-10.95352 14.01527 1.3407664 4282200622
-10.942536 14.005699 1.1145122 4282660397
-11.22852 14.096697 1.1953216 4282396968
-12.84692 -13.82893 -5.410068 4279507472
-14.380862 -13.951668 -5.4263682 4280492062
-14.694347 -11.762939 -8.125248 4280820253
-15.19606 -11.995714 -7.9112506 4280951588
-10.213385 13.898968 0.51487494 4283121203
-10.750299 14.062812 0.26792812 4282725930
-11.940428 -16.98175 2.103662 4279573010
-11.558477 -17.043797 2.1120362 4279835936
-15.518173 -13.243811 -6.5136003 4280558368
-13.114763 -14.89976 -3.6933227 4280097552
-12.700102 -15.039829 -3.378633 4279966220
-15.296616 -11.776785 -8.1163568 4280231189
-11.447246 -15.699106 -2.1265054 4279768848
-10.899524 -15.659779 -2.1926031 4280227084
-11.128543 -15.879705 -1.818717 4279899411
-11.542612 -16.81184 -0.48975325 4279965972
-13.247011 -16.922945 0.21401453 4280098332
-10.067465 -17.443214 1.5905576 4279704338
-13.166653 -16.85544 1.2179627 4279833616
-13.313047 -16.739069 1.4251423 4279833358
-13.428573 -16.798445 1.1785073 4280226833
-11.933422 -16.516134 -0.84702444 4279375889
-12.461622 -16.338518 -1.0786538 4279834137
-12.034004 -16.153078 -1.4038467 4279375886
-11.542587 -17.288183 0.99695778 4279966482
-11.370171 -17.319279 0.9986968 4280294674
-11.483768 -17.248575 1.1629915 4280294420
-11.108215 -17.395542 0.97708416 4280491285
-11.049477 -17.325869 1.2859399 4280557078
-10.752523 -17.441076 1.1226854 4280097809
-12.814817 -17.042423 0.25201988 4279572238
-10.757067 -17.36278 1.4206059 4280294166
-13.275393 -16.855368 0.038729191 4279441685
-12.971998 -16.938848 0.091471195 4279899664
-10.933504 -17.217216 -0.046958923 4279244309
-10.935762 -17.091352 -0.21770573 4279768588
-15.344738 -2.3923659 -11.104688 4282729274
-11.372524 -16.59066 -0.80510378 4280031764
-14.022211 -11.783828 -8.0903702 4280820509
-15.077318 -3.5829527 -10.949803 4282399277
-14.836787 -4.0910163 -10.87773 4282071348
-14.344824 12.528756 -6.8752708 4285422930
-16.156178 12.653391 -6.8191562 4285753950
-10.504838 14.108436 3.6600924 4281147926
-10.554901 14.341588 2.4990344 4281280034
-10.801189 14.209714 2.0197172 4281084199
-13.100607 -12.834716 -6.9310412 4280293404
-13.157167 -13.130439 -6.5544138 4279769620
-8.9969168 13.674964 4.9950328 4281214502
-9.0317783 13.696173 4.7475762 4281214754
-9.1955643 13.72872 5.0074143 4281280805
-9.1648464 13.709463 4.5500493 4281214754
-10.076664 14.103439 2.2322397 4281147939
-11.168468 14.423682 3.3881879 4281410071
-11.140053 14.475561 3.1098118 4281147932
-9.461585 14.060516 3.2730098 4281410848
-9.6537094 14.158318 3.2551284 4281214498
-10.000748 14.171396 3.453845 4281214242
-13.803019 13.619257 -5.558516 4283976769
-9.6951694 14.190983 3.11868 4281410848
-9.5772572 14.140667 3.0642142 4281410848
-9.6929312 14.192295 2.9790702 4281542176
-10.630445 13.915951 1.2855191 4282593573
-10.501901 13.984049 1.7193775 4281608743
-10.67863 13.994754 1.60781 4281937452
-10.755153 14.087955 1.7764983 4281739822
-11.833778 14.561039 2.1734495 4281674021
-10.696113 -17.29487 1.651408 4280359706
-10.997995 -16.925571 2.7645471 4279771161
-11.011066 -16.935062 2.741338 4279771161
-10.531045 -16.914404 2.8415806 4280031503
-13.94162 14.314464 -4.2828164 4283121468
-13.701572 14.275849 -4.2213497 4283055409
-12.081024 14.372987 -1.9778476 4282857777
-10.105265 13.756371 4.0957212 4281278746
-11.314073 -17.07283 2.2016096 4279836694
-10.770483 -17.204199 1.9060652 4280424469
-9.7277298 -17.1064 2.6226673 4279835413
-9.4223528 -17.047485 2.8400955 4279835413
-9.6125011 -16.869713 3.1932764 4280226837
-9.8958244 -17.060318 2.6898885 4280163099
-10.659914 14.027572 -2.482028 4285620052
-10.369794 14.010925 -2.0442331 4285291861
-10.024719 13.867017 -2.4899032 4283977798
-10.617077 11.89901 -6.6069221 4284303158
-10.976766 11.619682 -6.8760004 4284894530
-11.33279 11.921157 -6.7814198 4285420356
-9.4637203 14.074596 3.1048045 4281410848
-9.2541609 13.978903 3.2153916 4281148957
-9.5160904 13.766124 4.1044989 4281410849
-15.930353 -1.6124231 -11.205505 4283122231
-8.6520901 13.530307 5.3078575 4281280293
-8.7787228 13.563761 5.4085865 4281281060
-8.7153931 13.535856 5.358479 4281280293
-8.9227562 13.635183 5.2107158 4281281060
-8.5341539 13.661883 4.5933299 4281346337
-8.1827612 13.595963 4.6290951 4281084703
-8.3246422 13.693378 4.3935428 4281149474
-16.812962 5.5938883 -11.171556 4285623655
-15.020554 -13.377521 -6.3171406 4280294683
-13.896761 6.7409067 -10.629322 4283846217
-14.551798 7.0938373 -10.619971 4284241231
-13.975832 7.1912298 -10.493103 4283648828
-8.9400721 13.734032 4.4392662 4281345825
-8.7960539 13.693441 4.6159368 4281280804
-9.5881653 13.898963 3.8496189 4281410849
-14.795253 8.1664143 -10.257752 4283846723
-17.175213 3.5551188 -11.306157 4284306772
-14.021538 -7.6008744 -10.24754 4282071091
-14.747742 -8.0863876 -10.12261 4281873960
-14.92947 -7.4508457 -10.297119 4281743664
-15.530744 -4.0517735 -10.890562 4282334002
-15.220448 -4.4881964 -10.818108 4282137395
-15.726704 -4.4977551 -10.821969 4282203439
-15.884138 0.10411655 -11.260893 4282858040
-14.767302 -13.580858 -6.0235219 4280293905
-15.524122 9.9395475 -9.1589146 4287396449
-15.349763 10.087081 -8.9728136 4288054632
-15.78484 7.2508922 -10.739123 4286541935
-16.362881 7.0550437 -10.867663 4286345572
-15.332058 11.55134 -7.7203264 4286344795
-14.79006 10.902937 -8.1310844 4287265639
-7.2979145 13.222399 2.5088603 4281346344
-7.5643153 13.329934 2.7269533 4281214504
-7.151792 13.198561 2.8325438 4281346344
-10.018188 14.324977 2.927156 4281214754
-9.8588562 14.255884 3.0293121 4281214498
-9.8216877 14.234445 2.8706923 4281542176
-9.786562 14.132279 2.5050015 4281148707
-10.055 14.192997 2.4332666 4281083431
-10.114107 14.305265 2.6532764 4280952355
-13.706501 13.287421 -5.994133 4285160003
-15.050501 9.8552494 -9.1500149 4287987559
-15.381947 9.6933451 -9.3709869 4287067746
-16.763399 4.133697 -11.257599 4284570447
-16.208935 3.9511483 -11.245488 4284371278
-16.653852 3.717329 -11.278417 4283911501
-11.265495 -17.301975 1.1652446 4280294674
-12.143181 10.841303 -7.6153297 4285882704
-11.72683 11.179716 -7.3075452 4284962890
-11.309683 10.860572 -7.3948674 4284963658
-14.917467 11.566206 -7.6756296 4287131743
-11.176367 14.177813 1.6152091 4281936674
-15.263058 -12.951725 -6.8627515 4281148188
-12.192819 -12.913048 -6.6780844 4279177483
-12.181605 -13.432905 -5.9293261 4279243026
-10.361673 -13.505981 -5.6839967 4280161559
-9.9166288 -13.335385 -5.8751192 4280293389
-9.9295063 -13.690972 -5.378027 4280293393
-14.98067 -14.499907 -4.5200291 4280034079
-11.890308 -15.531537 -2.410594 4279309846
-13.243911 -14.128414 -4.9866323 4280029712
-11.872033 14.481601 -0.74441242 4282530098
-11.173857 14.072735 0.92452145 4282660655
-10.490698 13.889665 1.1055644 4282528808
-9.6504345 13.732518 1.2392406 4282201639
-9.7398195 13.751468 0.89419746 4282989875
-10.065088 13.810152 1.1309514 4282332203
-9.8768358 13.933941 -1.1188755 4283911238
-10.367807 14.056976 -1.5903897 4284765516
-8.6077137 13.322367 -3.0998635 4283055672
-7.9704685 13.186271 -2.8173902 4283515967
-7.8065381 13.059684 -3.2801085 4283647043
-14.454699 -0.00088142604 -11.221907 4283057977
-9.35742 -17.92264 0.53372741 4279573262
-9.783102 -17.796114 0.609797 4279114516
-9.4731236 -17.811655 0.30373979 4279506960
-8.8781452 -17.63522 2.1448836 4280226837
-9.068079 -17.539169 2.0489321 4280030998
-9.0591507 -17.67263 1.8830676 4280226837
-9.720561 -17.447031 1.8016181 4279180055
-10.269341 -16.815678 3.0415072 4280226837
-10.671103 -16.679972 3.3243084 4280226837
-10.67983 -16.679871 3.3291812 4280226837
-9.9369841 -17.221928 2.2708566 4279966229
-10.453738 -17.396158 1.5132227 4280162576
-9.5142899 -16.878754 3.1847372 4280226837
-10.499923 14.092532 1.9668202 4281215015
-10.497412 13.921931 1.5441141 4281871658
-10.43405 13.883229 1.4122584 4281805610
-10.685092 13.959949 1.453371 4281937452
-10.923098 14.065418 1.5787916 4282200622
-9.0630331 13.585985 0.4686625 4282528810
-10.690134 14.320411 2.3598762 4281149215
-9.1460762 13.589655 0.83265543 4282463280
-8.8011217 13.483518 0.67313552 4282528810
-9.4897804 14.054076 2.7919135 4281345567
-9.4352884 14.044786 2.9717445 4281541920
-9.2125568 13.931579 2.9011922 4281345311
-7.5813274 13.203689 1.694097 4281805862
-7.7164955 13.211789 1.267297 4281871139
-8.0461264 13.277858 1.4345546 4282067495
-9.627367 14.131793 2.8721085 4281280290
-9.6927948 14.146035 2.7136226 4281280290
-13.403877 13.737398 -5.2974772 4283844151
-13.172325 13.571678 -5.5152354 4283450680
-9.5576239 14.129448 3.1611338 4281410848
-11.741631 13.902051 -4.0267525 4282988334
-11.36382 13.745615 -4.434041 4282858800
-11.872324 13.819524 -4.5051899 4283382578
-11.619316 -16.278507 -1.2329745 4279834382
-11.619477 -15.980203 -1.6906929 4279833875
-13.708467 -14.527533 -4.4154992 4280163348
-12.500591 13.772054 -4.9933958 4283514931
-12.511683 13.862574 -4.7484822 4282990898
-12.134068 13.785553 -4.8090901 4283251506
-12.733362 13.324356 -5.790637 4284107064
-12.482572 13.422625 -5.6102099 4283909177
-12.913551 14.064576 -4.3031893 4282596667
-12.972651 14.151411 -4.0211086 4282727474
-12.56662 14.0384 -4.0916152 4282595630
-14.125776 -13.540879 -6.0651898 4280884761
-14.568831 -13.40722 -6.2665286 4280098323
-12.474887 -16.010386 -1.6014843 4280030732
-11.10695 -15.410913 -2.6512294 4279964431
-12.832962 -15.639333 -2.1888518 4279899665
-12.41614 -15.699462 -2.0975409 4279832848
-10.911999 -16.721436 -0.6750989 4279900184
-11.828445 -17.251919 0.83300686 4280097560
-11.507611 -17.32173 0.89619398 4279966482
-11.640755 -17.281464 0.90306282 4279966482
-11.63196 -17.320105 0.77605438 4279966482
-11.78907 -17.045435 -0.12631083 4279965969
-13.799209 -16.732918 -0.060844898 4279309337
-13.995642 -16.700962 -0.023576736 4279309337
-10.678741 -16.368586 -1.1056824 4279637519
-10.849096 -16.108782 -1.477654 4279309842
-10.113712 -16.141373 -1.3702772 4280357648
-9.9162331 -17.690325 0.34867716 4279245589
-10.278615 -17.640255 0.60121155 4280096535
-12.033575 -17.222185 0.77272081 4279835668
-12.175409 -17.214962 0.70321178 4279967512
-11.331347 -16.113806 -1.4796534 4279834902
-8.8528242 13.658256 4.8431916 4281214502
-8.7961264 13.610204 5.0893073 4281214502
-8.6782331 13.627722 4.8693104 4281346086
-10.629381 14.376776 3.2674179 4280885019
-10.92403 14.434721 3.2718658 4281147926
-7.9885063 13.659804 4.2782583 4281280809
-7.6632385 13.572595 4.1651545 4281280290
-8.132473 13.701161 3.937572 4281149733
-9.5641155 14.125476 2.9855022 4281542176
-15.561632 14.846243 -3.4412794 4283121720
-14.571971 10.994462 -8.050107 4287066972
-14.231663 11.073008 -7.9551253 4287131739
-14.484332 10.717473 -8.2361069 4287266918
-8.2802734 13.56716 2.5680838 4281083690
-7.9788842 13.426064 2.2492507 4281477416
-8.3608418 13.513545 2.1788054 4281148970
-6.6368475 13.048462 3.491137 4281543717
-6.8288288 13.103092 3.1462278 4281543717
-6.9424362 13.128321 3.4755394 4281477925
-8.9879761 13.910693 3.5498986 4281345566
-9.2761288 13.933315 3.7718329 4281411362
-8.8767414 13.864902 3.8935933 4281214749
-17.909632 -1.5496341 -11.305216 4281018664
-14.418579 8.8471565 -9.8434954 4285160257
-15.156384 9.065753 -9.8360062 4285226064
-14.331708 9.1745472 -9.6126995 4285488717
-15.358912 10.407096 -8.6676846 4288317803
-14.715134 10.34666 -8.6007061 4288185450
-14.939539 10.089278 -8.8946419 4288119407
-15.596912 0.89630878 -11.255274 4282926393
-15.97278 1.4186702 -11.282837 4283321412
-14.995196 7.4749513 -10.560409 4285093710
-15.116987 7.1364021 -10.689445 4285688156
-14.6075 11.485142 -7.7136984 4287066198
-14.803728 11.352902 -7.8162146 4287263842
-10.807357 13.674626 -4.2360449 4282596148
-11.248466 13.848173 -3.8603947 4282528047
-10.678848 13.748121 -3.761301 4282070069
-12.79163 14.157989 -3.7380924 4282530099
-12.245972 14.034131 -3.7019377 4282201134
-14.012688 0.92538184 -11.229019 4283319356
-13.97069 0.41556054 -11.225299 4282991938
-14.477155 0.60719436 -11.233706 4282991160
-10.011005 13.990512 1.9829769 4281345567
-12.266642 14.44394 -1.7989292 4283054905
-15.201557 -10.617786 -8.8931656 4280952090
-14.917624 -10.900495 -8.7480793 4281017631
-12.174641 13.235411 -5.7933111 4283974971
-10.175346 14.372283 2.8498769 4281214754
-15.542805 10.849393 -8.2882614 4288251751
