# .PCD v0.7 - Point Cloud Data file format
VERSION 0.7
FIELDS x y z rgba
SIZE 4 4 4 4
TYPE F F F U
COUNT 1 1 1 1
WIDTH 1150
HEIGHT 1
VIEWPOINT 0 0 0 1 0 0 0
POINTS 1150
DATA ascii
4.8578968 18.06282 16.808212 4280227858
4.8568301 18.431437 16.907326 4279834644
-15.731346 19.115978 14.576543 4281873451
-15.160528 19.052261 14.475591 4281479722
-17.773634 19.892447 16.282787 4280099100
-19.683126 20.084616 16.620117 4280164638
-23.275921 18.836912 16.025858 4281216552
-14.410326 19.026154 14.412235 4281676072
-14.529287 19.221077 14.654615 4281677363
-12.255396 19.617334 15.105103 4281677104
-12.288565 19.733089 15.317961 4281677878
-12.039336 19.68796 15.235215 4281873714
-14.153113 20.539009 16.936758 4280753694
-12.226799 19.363716 14.754179 4281282086
-12.359533 19.410032 14.80648 4281611056
-40.27441 22.011663 5.4297929 4280492830
-40.465088 22.23151 5.2043729 4281017885
-40.263916 22.338018 5.3643188 4280689181
-40.814243 22.45372 4.769711 4281279773
-40.923779 22.506916 4.6645203 4281147928
-40.793869 22.64687 4.8224339 4281017632
-12.409085 19.186453 14.588188 4281151272
-12.608974 19.282316 14.661332 4281545530
-18.116217 19.496098 15.382169 4282136375
-18.459991 19.405499 15.219032 4282203445
-19.600243 19.519987 15.892849 4280230430
-19.808643 19.329346 15.636093 4281809191
-12.043833 19.601078 15.096178 4281742126
-11.808099 19.64114 15.165651 4282070574
-11.886976 19.550133 15.00787 4281806887
-41.448444 22.451982 4.395072 4280820759
-41.714264 22.096235 4.2210221 4281082398
-9.3882179 19.273972 14.965009 4281475869
-8.352232 17.54319 13.743077 4279638291
-8.7203636 17.76334 13.837518 4280227600
-5.5884628 17.184465 13.824493 4280162063
-13.353609 19.42482 14.868979 4282070063
-9.7361774 19.116283 14.779933 4281082909
-51.8876 20.760492 8.5438986 4281079309
-5.2909107 18.608023 14.901772 4280425492
4.4022384 17.904852 16.703756 4280098325
4.5393004 18.037537 16.786858 4280032273
-21.125565 18.792685 15.436524 4282202939
-21.253757 18.681419 15.345503 4282334007
-21.329483 18.729342 15.491337 4282071349
-19.405371 20.27479 16.751226 4280360989
-21.427963 17.997772 14.197475 4282663479
-21.152969 18.160223 14.313625 4282597948
-21.214291 18.01009 14.14185 4282401598
-14.867753 19.358896 14.862826 4281808426
-15.241887 19.472708 15.041909 4282005553
-14.691978 19.542583 15.165262 4282136375
-11.731606 19.74472 15.367444 4282136373
-12.151869 19.550529 15.002542 4281742126
-12.41715 19.510626 14.938251 4281611056
-16.149017 19.183428 14.682408 4281743405
-68.032433 20.683109 10.270835 4279637006
-68.015579 21.002432 10.357735 4279702799
-67.730469 20.685133 10.19795 4280030739
-63.791359 20.717661 9.269701 4280424981
0.57234216 13.690078 14.726705 4280293908
0.47908068 13.756717 14.713974 4280293908
0.55656576 13.798405 14.749433 4280293908
-15.329667 19.329821 14.834836 4281742638
-15.205139 19.220833 14.679528 4281349671
-20.446491 19.390905 15.934029 4280690203
-20.404842 19.296686 15.826841 4281149470
-20.625599 19.312149 15.899123 4280953116
-21.163935 19.341793 16.070652 4280559398
-20.875555 19.337605 15.978336 4280559657
-20.345444 19.520216 16.043407 4280427805
-6.0843253 18.77117 14.94636 4280622622
-6.1709127 19.014177 15.140392 4280426524
-6.1785474 18.420715 14.650558 4280819227
-6.3525462 18.092131 14.362368 4280163609
-6.0684733 20.211674 16.385395 4281675549
-5.9275417 20.228029 16.436041 4281476895
-5.8305902 20.106724 16.355526 4281807393
-17.707489 19.000477 14.600501 4282531123
-17.318834 19.085403 14.672215 4282006581
3.4429512 18.149229 16.668438 4281410331
0.57746935 16.851171 14.896095 4280687890
0.79990399 16.639826 14.83897 4280818962
-16.081297 19.316574 14.891182 4281940532
-16.461782 19.233387 14.808037 4282268207
-40.492264 21.493715 5.1865196 4280689703
-40.343464 21.399286 5.4010925 4280427296
-42.537613 22.166914 4.6767721 4281147159
-42.399017 22.389936 4.7659683 4281016852
-43.193913 21.217978 4.2034998 4280687890
-43.470558 21.15868 4.3645859 4281342996
-45.841152 21.571383 6.5252466 4280228627
-48.189575 20.188665 6.7208786 4286549935
-48.842266 20.347052 7.1630564 4290706821
-42.594696 21.910288 4.4743214 4281080852
-42.691452 21.969936 4.6156893 4281146135
-49.715431 20.000786 7.2307453 4283268118
-19.277081 18.890142 14.626772 4282729536
-19.278666 19.013798 14.845877 4282794558
-19.00351 19.013227 14.73591 4282532400
-8.899704 18.429247 14.301076 4280687902
-9.5039787 18.81349 14.549493 4280818964
-8.5182323 18.725483 14.557465 4280426004
-15.665146 19.393297 14.946264 4281612336
-15.69009 19.256374 14.74999 4281742379
-20.782013 18.843586 15.251904 4282334521
-20.310648 19.891598 16.405031 4280296994
-9.2569494 17.506311 13.563827 4280293401
-9.4519491 17.68894 13.662445 4280227092
-10.377765 18.825764 14.487419 4280819732
-8.0974016 18.317987 14.305786 4280491024
-61.154701 21.113855 9.6466503 4279834646
-58.405258 20.137018 9.606246 4280029463
-14.188165 18.112009 13.678753 4281345574
-14.019951 17.957256 13.600271 4280624415
-14.552753 17.767427 13.462111 4281148444
-3.7258399 18.78322 15.31125 4280951060
1.2754184 17.144131 15.220481 4280754968
1.8388705 18.137741 16.089602 4281805852
-13.062149 19.193213 14.569144 4281545004
-12.873796 19.099188 14.488024 4281019177
-13.30426 18.966105 14.352818 4280754983
-11.316339 19.659378 15.248372 4281611821
-55.88694 20.474207 9.4254894 4279571984
-55.601723 21.279087 9.8130798 4279703053
-67.762802 22.698582 10.997866 4279637264
-67.778839 22.449917 10.913557 4279572247
-7.4917493 18.187092 14.289579 4280752401
-7.7605171 17.865267 14.039778 4281408787
-18.149321 17.992737 13.614726 4282135597
-18.256992 17.513479 13.245912 4281412125
-18.946051 17.54734 13.310365 4281805862
-16.244572 19.424934 15.114995 4281941055
-67.0299 22.619576 10.72145 4280622610
-67.801079 21.115877 10.361888 4279702543
-67.908035 21.329346 10.440553 4279637007
-67.711395 21.31851 10.40428 4279571729
-67.505371 23.685953 11.279531 4280030739
-16.462711 18.735456 14.179903 4282003752
-16.050636 18.82655 14.269297 4281807658
-16.187019 18.683081 14.132484 4281872937
-15.742027 18.739969 14.178912 4281217578
-15.384186 18.653151 14.079873 4281608999
-15.98786 18.537064 13.998648 4281545001
-68.231667 20.574095 10.295785 4279637007
-68.315956 20.549509 10.336894 4279637007
-17.026434 19.493517 15.459953 4282137655
2.9551558 16.883142 15.601756 4281541659
-18.376066 18.330473 13.933181 4282662200
-17.705133 18.447989 13.992683 4282268980
-13.351208 19.899837 15.853762 4281874218
-14.204731 18.618694 14.033006 4281149730
-14.24424 18.77195 14.150708 4281347368
-11.015012 17.766262 13.546783 4280031762
-10.98243 17.987204 13.726301 4279769107
-13.716621 18.447144 13.926615 4281279257
-13.401721 18.731144 14.151073 4281017122
-13.149918 18.611782 14.085169 4281606168
-11.501311 18.965458 14.502671 4280558106
-10.869175 18.58285 14.239405 4280754706
-11.980841 19.789848 15.450161 4281940021
-12.439977 18.96372 14.418373 4280953375
-13.371843 19.219809 14.597082 4281807661
-11.541887 19.598642 15.121738 4281611039
-58.649445 18.87109 9.0026817 4279505936
-58.158352 18.859695 8.9665833 4279767565
-58.47551 18.66972 8.8423796 4279506704
3.2494893 17.310585 16.052277 4281542168
2.9546373 17.474867 16.103018 4281935896
3.2529888 17.622969 16.294973 4281542170
-11.547592 19.675732 15.260748 4281873450
-41.729687 21.816273 4.1411314 4281149215
6.3004751 16.487612 16.627365 4280754204
6.539032 16.575922 16.653641 4280557596
4.5513606 18.35154 16.90456 4280030991
-41.858929 22.542631 4.4833393 4281410842
-42.010952 22.425322 4.488205 4281213207
-42.11203 21.428869 3.9403088 4281149210
-42.125759 21.54524 3.9744895 4281149210
-42.032398 21.529594 3.9862795 4281149210
-46.306377 21.239162 6.5450726 4280752408
-40.243889 21.101055 5.5144653 4280164638
-39.748455 21.737688 5.9478574 4280362012
3.9139066 16.761467 15.804248 4281411098
3.6304855 17.076975 15.973734 4281279508
4.2461691 17.118887 16.18364 4280951578
4.604588 17.449259 16.481293 4280886557
4.2329655 17.591536 16.50008 4281017893
-39.957161 21.925377 5.6784034 4280360471
-39.917568 21.699903 5.7949963 4280427030
-40.09866 21.797226 5.6278315 4280427030
-40.066772 22.285315 5.5059643 4280557591
-40.774883 20.972313 4.7475796 4280821534
-40.756729 21.249535 4.785243 4280886305
-40.613094 21.109489 4.9716492 4281017632
6.8289547 16.130783 16.582912 4280817939
6.5943656 15.977134 16.523273 4280819470
6.5160608 16.262905 16.589622 4280949780
9.1290016 14.406672 16.606863 4280425491
-4.3810554 19.678942 16.065214 4282004761
-40.780224 21.948231 4.8046875 4281280032
-40.78986 22.244331 4.7990723 4281344792
-40.92997 22.094595 4.6411333 4281345822
4.8431411 17.139433 16.403196 4280492566
4.9584508 17.468206 16.588179 4280425745
3.2893996 17.901157 16.494677 4281673500
-21.549263 18.377516 15.000521 4282663229
-21.202927 18.486614 14.888046 4282598716
-21.454899 18.259558 14.673447 4282925885
-22.133324 18.697958 15.945488 4281871654
-22.324558 18.682808 15.955405 4281216303
-22.143311 18.820604 16.000797 4281214501
-19.946342 18.81126 14.749506 4282860607
-20.545706 18.680092 14.809167 4282926145
-20.199615 18.972116 15.153467 4282399801
-18.703371 19.210529 14.936626 4281745211
-18.721996 18.96521 14.60576 4282270009
-5.9541988 20.337358 16.512451 4281476895
0.10815096 17.0646 14.934709 4280622611
-5.6045876 17.517464 14.012512 4280555023
-5.5814924 17.748289 14.195506 4280621070
-5.181284 17.627338 14.165341 4280556050
-4.916615 17.494509 14.115334 4280555025
-41.15329 19.763723 4.4771843 4281018408
-41.113831 19.620419 4.4748278 4281018667
-41.234352 19.623642 4.4242048 4281018667
-41.24968 21.774805 4.3902903 4281148705
-41.246349 21.546682 4.3579369 4280952354
-41.394318 21.578615 4.2658195 4281082911
-39.437164 22.65863 6.2491302 4280427811
-6.2882762 16.096434 13.570425 4282528793
-6.6894312 15.871183 13.547237 4281217068
-6.6318779 16.311829 13.51529 4280489229
-20.567987 19.211555 15.767354 4280953116
-20.389643 19.209707 15.684353 4281872673
-20.356157 17.168711 13.269686 4283261032
-20.835772 17.157749 13.371889 4284640896
-20.846945 17.403931 13.532739 4283978299
-16.962038 19.274462 14.96471 4282007602
-56.641685 21.096445 9.9091005 4279374608
-3.6569908 18.058826 14.856163 4280358934
-2.5046334 18.612783 15.448674 4281214229
-14.893805 18.622074 14.04027 4281740064
-14.47432 18.664764 14.057544 4281412387
-14.734415 18.466429 13.911556 4281608730
-19.427967 16.457853 12.677603 4281214761
-19.844103 16.850143 12.956608 4281411885
-19.23521 17.001894 12.950685 4281281055
-17.705595 19.171545 14.838037 4282531642
-18.070274 19.245007 14.956429 4282400316
-18.000778 19.121946 14.7772 4282794044
-40.625881 21.541592 5.0019932 4280756006
-40.756641 21.66818 4.8314843 4281018410
-41.730751 22.857943 4.6841884 4281475094
-42.777164 21.63106 4.3102121 4281342994
-19.958168 19.861235 16.389565 4280230947
-63.905483 19.7036 8.9375095 4280294161
-63.929363 19.034435 8.7047977 4279965206
-68.047791 17.697697 9.5166044 4279965968
-67.797363 17.365402 9.3910484 4280097039
-68.136421 17.330488 9.4849863 4280227601
-17.218407 18.227133 13.763937 4281480236
-17.655478 17.77457 13.426512 4281476376
-14.355273 18.326735 13.819708 4281476385
-15.210763 18.095512 13.637312 4280886807
-18.14522 19.027716 14.650874 4282531393
-43.731785 21.725153 5.1748848 4280227605
-10.623811 17.980988 13.745167 4280097297
-10.486857 18.032225 13.77202 4280228625
-10.418744 17.930748 13.700156 4280228882
-3.4678824 17.576391 14.558829 4280555282
-3.3425345 17.843464 14.80288 4280687124
-2.9566193 17.727081 14.806998 4280358929
-6.0764847 17.845543 14.206874 4280293398
-5.9671593 17.589022 14.027008 4280686094
-6.3706107 17.590958 13.984219 4280227859
-11.99855 17.974236 13.663728 4280361495
-12.608839 17.977224 13.657186 4280622867
-9.7114639 20.250969 16.336395 4281478436
3.5714006 17.780806 16.485228 4281476635
3.710186 17.473143 16.301153 4281281057
-23.816833 17.869606 15.632229 4281216296
-23.987513 17.75144 15.588616 4281545775
-24.126787 17.773722 15.720178 4280955692
-23.016947 18.944796 16.052183 4280954406
-48.641422 20.872309 7.4828367 4284362288
-58.019302 18.47047 8.6126432 4280096018
-58.135185 18.672497 8.8145199 4279833357
-57.800529 18.742407 8.8103542 4279767567
-57.777325 19.054689 9.0495977 4279964176
-57.37085 19.437466 9.2144108 4279898639
-57.256859 18.900764 8.8376417 4280030222
-24.075569 17.690119 15.551381 4280955692
-24.166008 17.641373 15.558155 4281611305
-24.155773 17.681629 15.615398 4280955692
-49.11977 21.063721 7.8181629 4281148186
-23.622831 18.74917 16.018541 4281216298
-19.674154 19.647572 16.104662 4280296486
-20.566759 19.078062 15.546496 4281608988
-20.795601 19.183191 15.801798 4281413660
-5.1561427 18.335245 14.693851 4280687638
-42.830215 21.329607 4.0162382 4281540631
-42.762714 21.259428 3.939959 4281540631
-42.985359 21.174715 4.0044222 4281212435
-14.699656 17.430758 13.270882 4280687383
-15.168219 17.490292 13.260361 4280686871
-20.668423 18.288416 14.294052 4282270529
-20.809616 18.384096 14.470434 4282729793
-20.231976 18.537779 14.459986 4282991422
-20.238615 19.663843 16.185398 4280428320
-20.184761 19.801443 16.31489 4280428320
-40.573364 20.761415 5.0346594 4280754973
-40.438187 20.997967 5.2197952 4280623391
-16.694771 19.26148 14.926056 4282137907
-47.357555 20.475992 6.5359888 4281016353
-48.662476 19.396143 6.1309805 4280491288
-49.294846 19.523117 6.574151 4282728535
-64.93251 19.528009 8.9912987 4281344537
-64.415146 19.571026 8.9297066 4280885784
-68.104607 19.962278 9.9957352 4279899923
-66.021103 20.151005 9.4816389 4282069280
0.56028628 17.827713 15.522802 4281608471
-13.689426 18.928583 14.299533 4281150247
-43.902142 21.351851 4.9087625 4280489492
-6.6323795 17.86343 14.162618 4280228376
-6.8422794 17.612926 13.956983 4280228377
-7.1587195 17.881172 14.113214 4280098071
-8.1619205 17.640749 13.841367 4280097815
-53.747761 18.861015 7.7750263 4284897424
-54.675816 18.612604 7.9322271 4280294177
-68.157455 20.670355 10.310898 4279637006
-64.952698 22.039591 9.7881432 4281672735
-67.942635 21.967505 10.688068 4280095762
6.579946 15.267623 16.229866 4280295188
6.2787714 15.469412 16.185452 4280097043
6.4778905 15.567863 16.333975 4280163862
2.8857846 17.76071 16.281206 4281673243
2.6994097 18.00589 16.369234 4281607457
-19.495457 19.309734 15.454088 4282266928
-18.189003 19.368317 15.144317 4282202935
-18.382017 19.263552 14.972912 4282335293
-22.250536 19.07522 16.076769 4280822051
1.9179254 16.51557 15.02352 4281343764
2.0766454 16.605223 15.115563 4281344281
2.313606 16.34816 15.026853 4281409304
-1.5698583 17.86371 15.126971 4280819742
-10.838573 19.325701 14.855963 4281083165
-11.349293 19.357708 14.837384 4281083683
-13.335035 19.334263 14.745899 4282070063
-8.9850674 19.048203 14.780874 4280818452
-9.3732338 17.872066 13.816621 4280030742
-9.3579998 16.774837 13.240192 4280491809
-9.3748856 16.629086 13.205962 4280491809
-9.5978909 16.698158 13.205968 4280493080
-18.236107 19.15266 14.823884 4282597183
-1.8888154 17.390024 14.826962 4280424461
-2.3770094 17.674215 14.871618 4280358927
-2.4892883 17.127983 14.594433 4280358934
-3.0552597 17.381155 14.54375 4280424465
-13.027233 18.902094 14.313347 4280493860
-12.625491 18.667435 14.179423 4280819988
5.5737858 14.990236 15.652519 4280752403
5.7898617 14.693201 15.735478 4280490005
5.477643 14.784073 15.631257 4280818453
-56.24976 19.780695 9.1132431 4279308815
-56.695488 19.948589 9.3456964 4280029714
-2.7795107 16.787537 14.396539 4279964944
-3.0517225 17.050945 14.399716 4280227598
-46.698006 20.830465 6.4657402 4280622618
1.7748369 16.440178 14.962363 4281343764
-1.4665034 17.521374 14.973598 4280491029
-4.0435677 17.268469 14.179392 4280424979
-3.9437356 17.490852 14.337127 4280490770
-3.6393673 17.347149 14.340094 4280686609
-42.93985 21.677649 4.4812555 4280883983
-41.774254 21.372725 4.0155296 4281084191
-41.805908 21.140259 3.9575541 4280953124
-41.95192 21.129272 3.8778028 4280952610
-42.919754 20.278999 3.9412739 4280952090
-43.000244 20.117575 4.0080872 4281018392
-43.152508 20.235483 4.0047693 4281017369
3.4633873 16.34371 15.331166 4281212182
3.1343999 16.604799 15.416008 4281474330
3.4111192 16.59189 15.48919 4281345049
4.7189198 16.728308 16.111761 4280820768
4.3276143 16.626213 15.851615 4280755486
-41.107819 20.819769 4.4164128 4280821792
-41.272846 20.798096 4.2864027 4280821792
-41.191231 21.049973 4.3392811 4280755745
-42.343662 20.475502 3.8048687 4281084201
-42.552296 20.427355 3.832356 4281084194
-42.459553 20.60663 3.777056 4281084194
-40.083031 20.595261 5.8677211 4280556565
-40.213234 20.629616 5.5872245 4280950810
-40.375725 21.198137 5.3386707 4280624160
-40.31237 20.958191 5.4175034 4280164638
-40.526691 19.273354 4.6489258 4280885794
-40.710003 19.495165 4.6392632 4280558624
-40.546764 19.467653 4.7604837 4280558624
-40.657803 22.443308 4.9674969 4281279773
-39.902393 22.144213 5.6369877 4280491805
-41.140083 20.291384 4.4793425 4280822308
-39.879025 21.475376 5.9635181 4280558367
-39.959206 21.099232 5.9803543 4280294939
-40.106434 22.490274 5.4474993 4280753693
-2.976651 17.951847 14.975769 4280884753
-39.64555 21.773081 6.0705719 4280426524
-40.903755 22.322571 4.6682792 4281213717
-41.222023 22.042147 4.4244452 4281279772
-41.046768 22.267698 4.548995 4281213717
-40.94886 22.7271 4.6888437 4280951837
-41.063942 22.530756 4.5592232 4281147928
-42.703587 20.523808 3.8352685 4281148699
-7.3005018 17.325142 13.72586 4280162831
-21.704071 18.853231 15.899302 4280887076
-21.889614 18.801405 15.942739 4281082659
-21.470348 19.313831 16.118906 4280296994
-19.778896 19.156221 15.289485 4282006329
-13.668398 17.570736 13.416142 4280227605
-13.274551 17.293198 13.296308 4280621328
-13.832588 17.252058 13.241538 4280228114
-11.319662 17.522505 13.379564 4280294432
-11.55681 17.473566 13.360272 4280294423
-11.603077 17.633972 13.439194 4280229657
-12.783102 18.872282 14.316867 4280623904
-16.178694 17.84874 13.451026 4282999868
-16.418566 18.241085 13.75089 4281543461
-15.530308 18.356665 13.834021 4281543715
-14.561144 18.744869 14.139054 4281542948
-14.491689 18.866274 14.242185 4281543467
-14.900387 18.771614 14.17217 4281675303
-13.588907 18.232613 13.792563 4281279257
-13.490213 19.07802 14.447115 4281413419
-23.405802 18.563816 15.987806 4281084971
2.4725485 17.752745 16.124794 4281804818
-16.892117 18.906828 14.389501 4282070824
-16.977358 18.659239 14.142053 4282005298
-17.503963 18.789009 14.319674 4282399799
-45.554188 19.888203 4.5038095 4280095757
-45.3381 20.152918 4.6284332 4280225805
-45.292049 20.023693 4.4315 4280357899
-16.818438 19.196672 14.801536 4282137907
-18.022524 18.839069 14.429624 4282465588
-18.326969 18.727753 14.317711 4282465577
-18.394306 18.909842 14.50748 4282269752
-17.399012 17.579062 13.273527 4281869336
-16.955606 17.484684 13.199488 4281214487
-17.49728 17.273445 13.069222 4280820761
-18.956156 18.332479 13.983093 4282597694
-19.515488 18.129383 13.867733 4282858811
-19.42618 18.362606 14.080906 4282859063
-19.675636 18.509817 14.275333 4282859574
-19.610456 18.747667 14.524483 4282925891
-19.124699 18.782784 14.456614 4282663998
-20.607956 18.032034 14.009256 4282531903
-19.970833 18.225712 14.047421 4282465846
-20.183853 17.937639 13.825076 4282794291
-40.518013 19.850716 6.9411049 4278190080
-40.430519 19.892969 6.6860189 4278190080
-22.219837 18.522934 15.804493 4281415220
-21.976875 18.576235 15.741022 4282465320
-22.246443 18.418264 15.655703 4282266671
-22.012762 17.851366 14.282707 4282729529
-21.929081 17.978142 14.466903 4282861111
-21.786095 17.931656 14.29928 4282597691
-20.927711 18.506563 14.719954 4282860863
-20.915356 18.646276 14.960213 4282663998
-20.011833 19.59108 16.091173 4280426781
6.1678333 15.748231 16.297485 4279639571
-21.837955 18.544121 15.60771 4282465320
-21.539869 18.662464 15.56728 4281938220
-21.668064 18.551201 15.476258 4282660652
-62.140537 20.314203 9.2583179 4279899919
-61.556789 19.899828 9.1833248 4279440144
-79.327209 18.444448 14.013948 4280426270
-79.35881 18.038422 13.903302 4280425758
-79.750397 18.38555 13.860206 4280426007
5.5330133 16.685375 16.529362 4280689441
5.2723427 16.742903 16.430658 4280492574
5.3513794 16.905403 16.529371 4280689180
5.584157 17.581554 16.737318 4280492322
5.1344137 17.713438 16.716204 4280032027
-65.470604 19.486042 9.108304 4281936929
-68.03804 21.372932 10.450597 4279637266
-67.98394 21.23489 10.41571 4279702543
-67.195793 22.741232 10.814048 4279964433
-68.367989 20.562454 10.503098 4279505935
-68.384521 20.42655 10.470591 4279768080
-68.43293 20.364305 10.601676 4279768080
5.9500809 17.679998 16.794834 4281017130
-18.084145 20.123304 16.647738 4279967771
-51.43985 19.387693 7.3150864 4281544749
-50.646767 19.572414 7.2006149 4280562242
-22.000854 18.69278 15.890493 4281871654
-21.838707 18.768902 15.886596 4281082659
-22.165396 18.598766 15.881214 4281871654
-22.031853 18.623112 15.831476 4281871654
-21.938751 18.883114 16.007618 4281082659
-56.304749 18.919998 8.5926752 4280163093
-56.660378 18.922749 8.7067747 4280094993
-56.360237 19.283663 8.8448143 4280423698
-5.8889475 17.211838 13.789069 4280096525
-6.2726865 17.21368 13.742795 4280162062
-6.0327759 17.320814 13.834237 4280686606
-42.714767 21.53578 4.1476393 4281342994
-42.760223 20.930174 3.8478563 4281279257
-42.582165 21.173506 3.8720198 4281345310
-18.452496 19.102667 14.749207 4282335038
-0.86885595 17.296614 14.972425 4280753174
-16.601805 19.134636 14.649158 4282398507
-16.983917 19.114172 14.670713 4281744433
-19.654362 19.006813 14.961647 4282598469
-61.371056 20.492159 9.4149332 4279309587
-20.859221 18.099575 14.137736 4282270018
-20.950836 18.174376 14.250053 4282467138
-11.031947 17.559574 13.398148 4280360743
-10.776523 17.36503 13.297094 4280360224
-15.627523 17.611547 13.300883 4281149990
-14.876534 17.90056 13.522478 4280886302
-22.506788 18.566475 15.903818 4280560682
-22.700554 18.451984 15.844254 4280954152
3.2351091 16.754738 15.580851 4281803545
-44.914555 20.619783 4.888299 4280357646
-45.063301 20.377022 4.6837606 4280554265
-45.333099 20.361551 4.8826833 4279965456
-49.070164 19.890808 6.8607197 4286044621
3.2542143 18.999212 16.899334 4280228374
5.1406698 17.186405 16.535398 4280951066
4.1983371 18.035593 16.753082 4280099358
4.1875262 17.853067 16.638784 4280099358
-11.194937 19.237885 14.736809 4280756255
-7.2997789 17.579327 13.896409 4280161557
-8.4509869 17.146284 13.480743 4280096531
-8.3983784 17.346502 13.601346 4280031250
-0.23302031 16.930225 14.845598 4280622354
-0.37217689 17.197584 14.970732 4280950038
-46.152222 20.946493 6.2166328 4280949276
-44.527027 20.777874 4.7777095 4280358412
-42.516518 21.431753 3.9494469 4281344017
-42.340294 21.401339 3.9131203 4281214230
2.0823488 17.710632 15.927119 4281740052
2.9111102 17.193987 15.862784 4281738776
-48.785614 18.974113 5.6722717 4280752140
-48.070499 19.260355 5.6313591 4280752921
-48.104164 18.939007 5.2168655 4280751373
-43.870342 20.748238 4.296679 4280621330
-43.699833 20.724018 4.1696424 4280687892
-43.896755 20.581915 4.2087116 4280752144
-45.04789 18.421879 3.9594164 4280819474
-44.846508 18.426304 4.0076823 4280950286
-44.998638 18.258005 4.0134897 4280819729
-43.00462 21.510569 4.3482618 4280425232
-4.1580529 16.642702 13.949821 4280358157
-4.4242492 16.848804 13.931086 4279964687
-4.0958781 16.853537 14.008814 4280096016
-4.372807 17.366659 14.151713 4280751632
-4.342618 17.131163 14.041122 4279965456
-4.0900364 17.092405 14.093123 4280096785
-4.2443027 17.028698 14.025743 4279965456
1.7905526 16.709467 15.102134 4281409814
1.5823175 16.661213 15.016029 4281475354
0.54019332 17.11445 15.02334 4280884752
-45.037666 20.228222 4.4867759 4280488980
-44.901299 20.066296 4.2268243 4280358674
-45.06641 20.064516 4.3275023 4280489487
-44.827042 20.223484 4.3563404 4280162331
4.4084778 17.775949 16.627295 4280493084
3.7325263 17.88834 16.590475 4281083931
0.57972336 17.430206 15.239755 4281278233
1.0013419 17.337833 15.273027 4281345047
-8.4455843 18.027863 14.065377 4280426003
-40.135914 19.874443 5.7027321 4280426520
-40.247776 20.001156 5.7559252 4280689950
-40.21151 20.003819 5.9048424 4280886815
-42.104954 22.512697 4.6445017 4281214232
-41.327183 20.609617 4.2714424 4281215523
-41.221191 20.652111 4.353653 4280952864
-41.2742 20.452007 4.3466454 4280822049
-40.511143 20.471451 5.1663642 4280623650
-40.356274 20.707893 5.3480473 4280885535
-2.2182534 15.589691 14.27383 4280095764
-2.6744635 15.881668 14.211172 4280095760
-2.1544614 15.941853 14.337951 4280096274
-40.130783 20.982624 5.6998839 4280164638
-39.981823 19.051811 4.9257984 4281018661
-39.958885 19.170738 4.9953032 4280886304
-39.788193 19.125278 5.1016197 4280755487
-40.660133 20.463913 4.9536743 4280493341
-39.965942 20.809612 6.1241107 4280491542
-40.230793 20.852367 5.5385151 4280622873
-42.099964 20.088097 3.9901459 4280953384
-42.220203 19.917019 4.062108 4280953380
-42.398853 20.062706 3.9653366 4280953382
-40.305481 19.939455 5.4863553 4280360989
-40.272285 20.129099 5.6702895 4280557338
-40.863548 19.759972 7.52107 4278190080
-40.534328 19.847244 6.963932 4278190080
-42.03648 20.747698 3.8118482 4281149990
-42.105194 20.512823 3.832083 4281018404
-42.248257 20.631521 3.765439 4281084201
-41.97504 21.30652 3.914521 4280952610
-42.13195 21.296539 3.8884275 4281150242
-42.007751 21.44268 3.9556286 4281018654
-44.651604 20.08198 4.1449165 4280228627
-44.707211 20.160158 4.2309256 4280227859
-44.51083 20.190462 4.1919565 4280163344
-40.787189 20.402683 4.8097515 4280493341
-40.719189 20.290642 4.9113607 4280295965
-40.831329 20.223995 4.7948184 4280493341
-42.787792 21.825432 4.5336075 4280883217
-42.465954 21.623915 4.0586238 4281212691
-42.225372 21.689802 4.039135 4280951062
-41.891781 20.964409 3.8781621 4281083427
-41.706238 21.056641 4.0072823 4280952609
-42.445969 19.794739 4.1098599 4281018660
-42.700752 19.917574 4.042798 4281149218
-42.605022 21.544121 4.0784445 4281212691
-42.712513 21.441761 4.0473552 4281474323
-0.73710799 16.873638 14.809526 4280686355
-1.2278938 16.435801 14.628632 4280097041
-4.2910838 17.974926 14.600414 4280031501
-16.151632 15.667806 12.394138 4280097808
-16.422287 16.082483 12.517789 4280424982
-15.769456 16.147341 12.591327 4280950551
-17.410633 16.652822 12.71269 4279704594
-17.584015 16.965984 12.872892 4280229661
-17.127136 17.030886 12.929021 4280098079
-12.999993 18.261978 13.850075 4281148436
-13.59275 17.940857 13.605304 4280950299
-12.768704 17.603031 13.450969 4280489748
-12.541845 17.18313 13.251437 4280163342
-13.659949 19.142431 14.519527 4281413674
-14.416631 16.676815 12.938059 4280883983
-14.860943 16.813171 12.947803 4280556307
-14.303984 17.028833 13.10717 4280556046
-21.654139 18.079655 14.468648 4282925370
-21.393173 18.134655 14.392025 4282991158
-21.59886 17.981693 14.265545 4282925370
-57.833157 20.041151 9.5713987 4279571985
-19.0462 18.558544 14.215879 4282270013
-15.155928 17.100042 13.052126 4280949782
-14.674648 17.149643 13.13213 4280556308
6.3892512 17.528492 16.814171 4281016860
-65.707672 19.89616 9.3078136 4282002718
-67.798309 21.541727 10.481215 4279702798
-67.962486 21.457558 10.47369 4279637266
-68.67543 19.951851 11.083729 4280161808
-68.542969 20.039398 10.736341 4279964944
-68.696167 19.677973 10.799536 4279768338
-66.788147 20.928978 10.006439 4282460960
-79.371033 19.613091 14.30933 4280426522
-79.501915 19.330996 14.207894 4280163612
-69.061592 18.667259 11.698238 4279636751
-69.07103 18.626774 11.413839 4279702544
-69.106812 18.38817 11.4483 4279571471
-12.307406 17.663404 13.474544 4280229911
-11.957321 17.411102 13.336042 4280293653
-9.8367786 17.865301 13.720771 4280359185
-10.255606 18.015869 13.759645 4280162832
-14.221247 17.37117 13.279679 4280227857
-14.139238 17.69383 13.448687 4280229401
-13.873689 19.038717 14.403534 4281347877
4.8163676 17.799948 16.694746 4279966227
-23.434191 17.971401 15.553354 4281677346
-23.578882 17.989214 15.654087 4281479203
-23.383461 18.071445 15.666138 4281019430
-21.82262 18.152348 14.779673 4283056962
-22.168547 18.114023 15.008272 4282597180
-21.889462 18.292576 15.147302 4282597180
-21.854462 18.673187 15.799464 4281805338
-21.677664 18.785042 15.820225 4280887076
-21.697155 18.68306 15.711966 4281741603
-21.447824 18.618021 15.398588 4282334007
-61.951672 18.50495 8.5925741 4279375119
-62.648491 18.536955 8.554862 4280031258
-18.674366 18.752754 14.362252 4282467130
-19.738398 17.341866 13.255838 4281810489
-16.565569 18.526495 14.004518 4281610023
-21.394318 16.158169 12.820665 4283060306
-21.485609 16.65089 13.154418 4287526021
-20.999838 16.481964 12.976692 4283060830
-50.32708 20.096237 7.5613155 4281745991
-25.455227 17.707911 15.84675 4281347628
-23.613441 18.290165 15.911635 4281150502
-23.837685 18.023716 15.798409 4280954151
-24.03746 18.201033 15.927832 4281151015
-25.096895 17.548756 15.868411 4281215785
-25.238415 17.788267 15.865023 4281347627
-24.950855 17.917458 15.880001 4281478698
-25.716413 17.520494 15.868011 4280822311
-25.660698 17.360147 15.900954 4280822054
-25.914415 17.348867 15.901823 4280886054
-24.26453 18.284468 15.962175 4281085733
-24.105286 18.455456 15.996901 4281085735
-22.951717 18.061077 15.465171 4282465331
-23.227217 18.051802 15.573381 4282005027
-23.010019 18.172459 15.650621 4282266666
-79.286331 19.310329 14.280007 4280229663
-17.916666 17.077703 12.941152 4280753430
-17.88361 16.716873 12.734753 4280358933
-22.899593 17.753292 14.728731 4283121978
-22.846836 17.901806 15.025469 4282728250
-21.099499 18.674242 15.183165 4282336063
-21.892237 17.777243 14.103608 4282860089
-22.172014 17.609486 14.018264 4282729278
-22.075052 17.722685 14.104791 4282729788
-22.120117 16.607519 13.184793 4286153541
-21.749998 17.007555 13.431353 4283581746
-19.627365 17.787081 13.58684 4283059255
-20.4007 17.592312 13.582543 4283716934
-42.034405 19.313644 4.4445934 4280757033
-42.385506 19.486046 4.2899895 4281149735
-42.001503 19.606684 4.2762527 4280887848
-61.907963 20.888393 9.4681196 4280030993
-10.670762 18.152193 13.877771 4280359955
-21.381054 18.803102 15.658382 4281938220
-18.548645 18.55068 14.158651 4282465848
-9.8254738 17.262011 13.339294 4279834640
-9.7186737 17.579203 13.533952 4280096271
-16.12697 16.611662 12.739272 4280687381
-40.526176 19.848984 6.9525042 4278190080
1.6617043 16.200912 14.84511 4281408535
-49.937828 19.569527 6.9011078 4282919707
-51.946411 19.567627 7.6635408 4290371032
-51.61047 19.56497 7.5529213 4284253140
-51.977329 19.314425 7.4365382 4285427341
-1.7235398 16.135759 14.473998 4279900433
-2.0147014 16.245365 14.431492 4279244560
4.2701721 16.125244 15.480367 4280687125
3.9111066 16.234259 15.397985 4280818709
4.0913649 16.433933 15.609739 4280819998
3.9464512 14.062359 15.373044 4280423177
3.6476471 14.251567 15.28462 4280751371
3.9853621 14.338528 15.355292 4280488719
2.659514 17.445787 15.984025 4282001431
-8.0307226 17.269583 13.615923 4279900434
-7.5730896 17.180584 13.622917 4280293393
-7.8778934 17.059427 13.509252 4279833874
-5.0106668 17.959507 14.434127 4280555282
-5.2130508 16.874884 13.77419 4280161551
-5.2938395 17.091787 13.828273 4280161805
-4.9295473 17.048912 13.880665 4280096270
-67.426468 19.296787 9.7135267 4280883730
-67.20636 19.884325 9.7938366 4280229396
7.8594027 16.200102 16.725607 4280754204
8.212904 15.811081 16.726374 4280556572
7.8164063 15.509706 16.616077 4280752916
-1.6877396 16.608871 14.60658 4279966221
-6.3830166 16.828564 13.58786 4280096019
-6.532671 16.698666 13.548716 4279964953
-6.7039342 16.836361 13.552387 4280030481
-7.7380552 17.454348 13.774384 4280359182
-8.8257217 16.648813 13.268624 4280032279
-8.7723351 16.889221 13.334602 4279768852
-49.516171 19.121376 6.2497692 4280358174
2.5857663 14.245835 15.076609 4280949524
2.8820012 14.13086 15.148221 4280556561
2.6106777 13.954163 15.111326 4280686614
0.93647492 16.885267 14.973901 4280688402
2.3939776 16.499031 15.133514 4281541148
2.742435 16.309456 15.099714 4281343252
-3.5505729 13.914543 14.135242 4280821289
-3.3386035 14.296311 14.117094 4282406499
-2.8759909 13.987344 14.21678 4280625189
-3.4396372 17.179783 14.326017 4280292881
-21.245081 17.838339 13.971121 4282662972
-21.872122 17.572987 13.876737 4283056443
-21.557255 17.826527 14.043981 4282794046
-58.328976 18.527538 8.6977682 4279834135
-58.408783 18.284418 8.4811468 4279834140
-60.727371 20.1786 9.3893604 4279637016
-42.999516 21.260752 4.0949507 4281212435
-43.46199 20.558132 4.0253673 4280950294
-43.282173 20.820187 4.0010734 4280885268
-43.197803 20.701675 3.9645121 4281147672
-55.355648 19.625702 8.7740602 4285770312
-55.662998 19.211123 8.5964298 4288519773
-55.291241 18.202312 7.8503661 4280358418
-54.904873 18.075867 7.6255746 4279768083
-21.919357 17.825756 14.179182 4282597691
-22.114429 17.753357 14.168883 4282729788
-21.353405 18.560997 15.185916 4282597690
-22.95953 17.581575 14.449587 4283122233
-68.835342 19.149059 10.715958 4279702799
-68.894196 19.148642 10.901509 4279964431
-68.811211 19.378944 10.846994 4279833365
1.8170047 14.97655 14.839844 4282529330
2.1765912 14.785256 14.927586 4282002471
1.7629232 14.583318 14.890224 4282009672
-2.0077901 16.911888 14.6254 4280228369
-18.925331 18.025259 13.704417 4282726715
-16.398769 17.180359 13.02565 4280687126
-47.164852 19.776596 5.744071 4280752657
-46.74287 20.326691 6.0505381 4280424983
-14.95144 16.305365 12.735805 4280951072
-14.513062 15.879152 12.642691 4280359186
-15.382003 15.723164 12.497168 4280686610
-21.639921 18.471272 15.291537 4282596913
-19.514523 18.892292 14.720129 4282860616
-14.078665 18.905434 14.280588 4281544483
-10.388722 17.348825 13.309062 4279965974
-10.623787 17.103889 13.191363 4280031764
-11.087501 17.025623 13.154615 4280293648
-10.913694 17.181358 13.214937 4280359705
-10.856591 16.99943 13.140485 4280162322
-5.7518249 16.966906 13.70967 4279899663
-5.7921543 16.815001 13.657738 4279899919
-5.9733458 16.901766 13.664045 4279899662
-2.3788958 16.73736 14.48253 4280358931
-44.739426 20.458488 4.5598087 4280293399
-44.349602 20.583496 4.4633088 4280554510
-10.085611 16.47146 13.094428 4281084198
-9.7608604 16.520914 13.150116 4281479717
-9.9549217 16.253471 13.093346 4280757305
-24.025991 17.669241 15.487316 4282072118
-23.854 17.745306 15.481691 4281545775
-24.028803 17.580576 15.357953 4282072118
-11.359789 17.707071 13.492822 4280229147
-56.028378 19.060865 8.601428 4281475915
-56.035454 18.650097 8.3412123 4279835416
-13.145703 17.801764 13.553332 4280818710
-13.853208 16.896011 13.076297 4280360467
-24.701279 18.086201 15.908892 4281282088
-24.70887 17.828602 15.873037 4280954403
-15.722033 17.108145 13.007875 4280492071
-10.997829 16.830141 13.092607 4280162066
-11.372046 16.852551 13.100069 4280424976
-11.901841 17.690035 13.47066 4280229401
-64.672562 18.379614 8.5381832 4281081621
-65.21904 18.20348 8.6112823 4281541661
-65.225426 18.853109 8.8456688 4280951566
-60.539639 18.044392 8.4368811 4283714109
-59.811253 17.98982 8.4236526 4280236083
-60.23111 17.702795 8.2375851 4285359483
-64.543907 18.949827 8.734416 4280755234
-40.343014 19.935219 6.4309607 4280556310
-41.966042 20.316357 3.9366708 4280953381
-42.220753 20.296074 3.8741841 4280822312
-41.539314 20.810843 4.0979309 4281148963
-41.617451 20.606359 4.0635147 4281280803
-41.744358 20.820662 3.9704084 4281215267
-41.912033 21.618494 4.0332661 4281149212
-41.161335 20.007053 4.4821844 4280886819
-41.315147 20.167788 4.3529396 4280888104
-40.503914 19.99383 5.2214751 4280229657
-40.369877 19.741798 5.1825819 4280229403
-40.628349 19.848412 4.9790473 4280033563
-40.888039 21.264324 4.6148348 4280886561
-40.987595 21.031265 4.5169821 4280887074
-41.066914 21.277565 4.4627585 4280886561
-40.823643 19.970823 4.7880664 4280493087
-40.684574 20.121508 4.9979343 4280295965
-40.22065 20.023542 5.9100728 4280556310
-40.240185 20.095137 5.854455 4280557338
-40.198467 20.132734 6.0914183 4280556310
-22.15613 17.857536 14.39139 4282729529
-22.421215 17.755972 14.387915 4282860088
-22.702299 17.630304 14.351837 4283188024
-41.554989 21.531895 4.1614113 4281083679
-41.39764 21.806744 4.2981734 4281214752
-42.120327 20.947552 3.7910929 4281149991
-40.526215 21.294346 5.1144261 4280624160
-22.384356 17.585543 14.08181 4283123007
-21.159594 18.31971 14.56084 4282597946
-21.091967 17.546618 13.694611 4282860860
-23.626265 17.855127 15.503493 4282007347
-20.875626 17.770189 13.821929 4282401842
-22.233036 18.211203 15.274735 4282531388
-24.336243 17.858961 15.854929 4280757802
-21.234798 17.430092 13.636118 4283779902
-21.469034 17.286282 13.578201 4283911239
-21.469141 17.439337 13.688998 4283253561
-24.304712 17.571413 15.579758 4281151780
-24.416296 17.452948 15.525789 4282201903
-24.483273 17.44084 15.607426 4281216289
-43.868698 19.919724 4.0404263 4281081104
-44.071686 20.172108 4.0914025 4280424206
-43.723015 20.278585 4.0502625 4280950034
-42.636158 20.269508 3.8797626 4280625442
-42.466667 20.276697 3.8618724 4280625442
-42.983379 20.396465 3.9224541 4280952090
-42.878574 20.491619 3.8804572 4281148699
-42.846451 20.417236 3.8920901 4280822044
-42.736874 20.354074 3.8819647 4280822044
-43.032475 20.835871 3.9191968 4281213464
-41.655251 21.279161 4.0600538 4281018143
-43.3433 21.04694 4.1670485 4280950289
-43.465195 20.86771 4.113966 4280687892
-43.613243 20.919558 4.2525091 4280883993
8.0363207 13.503821 16.249105 4280030999
7.946353 13.311856 16.146864 4279900690
7.7256694 13.511448 16.098341 4279899917
-43.793587 20.974298 4.4384613 4280620565
-44.054768 20.786869 4.4597492 4280488973
-44.244595 20.85149 4.6492062 4279964431
-43.997681 21.043497 4.662199 4280357650
-46.459675 18.606789 3.9507289 4280886556
-46.201687 18.940172 4.0807419 4281279757
-45.959038 18.810068 3.9628508 4281676563
-42.807503 20.192595 3.9470496 4280952861
-42.866959 20.019432 4.0183287 4281018392
-6.7970672 16.984444 13.595931 4279965202
-7.2300577 16.98653 13.558287 4279964689
-8.3452778 17.433964 13.670117 4279899921
-8.193882 17.388502 13.666294 4280031763
-0.74263167 16.420048 14.675267 4280491281
-0.34854245 16.305407 14.667986 4280751639
-0.68833041 16.016304 14.591346 4280491023
-26.813763 16.366537 15.722681 4280886050
-27.132425 16.320732 15.759484 4280492575
-26.565197 16.566704 15.860722 4280689186
-25.909344 17.507128 15.868225 4280822311
-25.6068 17.651419 15.852427 4281217324
-25.534664 17.54553 15.861601 4281019946
-66.584633 20.155756 9.683918 4282464038
-65.87825 19.063187 9.1117067 4281806621
-68.384407 19.109571 10.1039 4279965716
-68.449074 19.227982 10.137009 4280097299
-68.355576 19.253359 10.032542 4279965972
-68.533562 19.938114 10.561242 4279833878
-68.501495 19.966415 10.395798 4280030484
-68.581696 19.794302 10.522489 4279833882
-68.364662 20.497946 10.408069 4279768080
-68.396805 20.378237 10.401922 4279899408
-67.848373 18.908974 9.8083973 4280424980
-8.1720171 17.477898 13.730573 4280031763
-8.042017 17.434319 13.720498 4280163344
-23.383682 17.868122 15.381083 4282400820
-23.124451 17.863966 15.180384 4282466103
8.7531776 14.849521 16.650864 4280359955
8.5072508 15.197795 16.685764 4280033820
2.0399072 16.347662 14.971292 4281343510
5.1084938 17.036232 16.472034 4280688916
5.1863294 16.220619 16.070787 4280557080
5.3709192 15.926239 15.973997 4280687377
5.048583 16.0583 15.868839 4280818706
4.922739 15.903992 15.676589 4281014801
4.8008862 16.153353 15.78509 4280818706
-79.590904 19.117561 14.11182 4280229147
7.3387594 16.742928 16.75139 4280296222
5.4979396 15.722498 15.893661 4280752915
5.6759129 15.547192 15.871554 4280949522
5.4678712 15.600897 15.783597 4280752659
-5.5243721 16.923775 13.734297 4280096016
-4.5899296 17.501026 14.18339 4280751632
-4.7122345 17.689564 14.291081 4280554253
-4.2878532 17.624918 14.339312 4280424718
-7.3151312 17.085365 13.591343 4280030736
-7.5166063 17.029961 13.544017 4279899411
-4.7443104 17.355865 14.059731 4280292882
-3.8401198 17.749966 14.573202 4280620816
-3.7661691 15.355485 13.963953 4279703322
-4.0843639 15.002838 13.954384 4280229402
-4.4399977 15.496449 13.880428 4280425499
-22.954128 18.318117 15.79154 4281609513
-68.782745 19.899137 11.515711 4279833872
-22.397894 18.097399 15.148359 4282597441
-21.991659 18.388166 15.43037 4282530615
-22.475946 18.21883 15.452609 4282466877
-6.5762911 17.437998 13.857738 4280359443
-6.317862 17.434067 13.884192 4280490511
3.7135727 16.521576 15.537005 4280951836
-68.573784 19.235016 10.29417 4279899663
-68.729645 19.13135 10.508539 4279702799
-68.657738 19.424307 10.446888 4279833364
-22.89027 19.129339 16.074463 4280954149
-40.97966 19.847961 4.5965786 4280624930
-40.741257 19.701147 4.7445955 4280165148
-40.093468 20.329849 6.0475683 4280753940
-66.066391 16.850496 8.3340683 4282068000
-66.380257 16.442343 8.2928867 4282002964
-66.496841 17.022812 8.5956573 4282134564
-41.74168 18.577621 5.0935044 4280887847
-41.920216 18.477512 5.1783886 4280887847
-41.872322 18.622042 5.0419464 4281150248
-41.008041 19.530481 4.5017023 4280690213
-41.118114 19.50235 4.4538012 4281018667
-23.032314 16.669424 13.36554 4283122227
-22.741735 16.785198 13.39814 4283319605
-22.971317 16.565258 13.253145 4283123516
-22.602463 18.034891 15.141541 4282597441
-22.752296 18.03754 15.271321 4282531130
-24.521847 17.236763 15.277345 4282203192
-24.296038 17.419985 15.343967 4282400819
-24.122076 17.412691 15.178207 4282465852
-20.360342 18.284121 14.198314 4283056441
-21.174849 15.74624 12.520746 4280041006
-20.952501 16.11656 12.73598 4283972919
-21.267593 17.07671 13.401264 4286345331
-20.947958 16.866541 13.203647 4284972414
-18.305527 16.860344 12.814101 4280688920
-18.639984 17.126915 12.983459 4281280024
-18.217737 17.197323 13.01569 4281344792
-18.067644 18.610952 14.178773 4282596402
-18.32832 16.414799 12.58116 4280228377
-18.810547 16.651642 12.719221 4280687642
-7.598649 16.911346 13.484872 4279900180
-9.3476734 16.467937 13.192123 4281412907
-9.189867 16.599569 13.219841 4281412907
-54.265919 18.308794 7.5571551 4279374863
-55.93158 19.500704 8.8513975 4279246361
-58.994228 19.046415 9.115736 4279833104
5.9733796 16.042665 16.395973 4280622357
6.3544402 15.869991 16.431831 4280426001
5.4848652 16.072554 16.156487 4280687891
4.4638529 15.586576 15.326645 4281015058
4.7918477 15.387378 15.408139 4281080337
4.6646543 15.285118 15.380471 4281080337
-5.5711532 16.400681 13.65631 4280358175
-5.4266205 16.147762 13.677324 4281738025
-5.6882634 16.063141 13.635098 4281744173
-4.3105588 16.434092 13.896688 4280554768
-3.7425642 16.362549 14.011462 4280555795
-4.6535826 17.189898 14.002982 4280095758
-4.9886837 17.222788 13.943661 4280096270
-6.1373081 16.745975 13.601995 4280095508
-5.8829002 16.582846 13.61012 4280096271
3.8858416 17.76948 16.54183 4280691233
2.3893821 15.96304 14.891049 4281146129
2.2489522 15.864405 14.845735 4280950291
1.9843481 16.017746 14.837614 4281081104
-13.276256 16.66235 13.015192 4280491797
-12.991793 16.182278 12.856421 4280030994
-13.695303 16.078314 12.784506 4280292629
-23.415268 16.547834 13.327316 4282926139
-23.431082 16.666111 13.465387 4283056950
-23.167061 16.738153 13.463602 4282925877
-24.414991 18.083918 15.920467 4281020202
-22.689901 18.288084 15.678045 4281676074
-24.121132 17.289873 14.897469 4282727481
-23.621759 17.59618 15.073233 4282335300
-23.361006 17.336542 14.309305 4282926134
-23.392088 17.175472 14.078667 4283122748
-23.843058 17.042711 14.174068 4283318847
-11.632471 17.307493 13.280933 4280294162
-11.722578 17.442156 13.342129 4280294170
-47.240543 18.959299 4.6986461 4280621322
-46.973251 19.180832 4.827033 4280228368
-46.90551 18.998629 4.5237012 4280162832
-46.674652 19.146004 4.5622425 4279966993
-59.741104 18.334951 8.6401463 4279836179
-59.367397 17.956266 8.3504238 4280819491
-59.716602 17.697567 8.2191324 4279836697
-20.157654 19.172607 15.502948 4281872933
2.1904583 14.055419 15.027877 4280882198
2.2044282 14.429184 14.980866 4281474857
-14.127392 16.406082 12.858368 4281080084
-43.053703 20.745644 3.916553 4281213464
-43.055225 20.6553 3.9104848 4281213464
-40.336533 19.299404 4.8063126 4280754720
-22.577702 17.266901 13.798826 4283319101
-22.361624 17.297106 13.756405 4283450943
-52.50795 18.102486 6.6452603 4280162581
-53.13406 17.825623 6.67239 4280294173
-53.185532 18.184874 7.0055366 4280623389
-1.0911915 15.76238 14.501268 4280162831
-0.65849352 15.607355 14.541678 4280556305
-1.1543684 15.378917 14.441565 4280228375
-5.2879009 15.359201 13.796594 4281146404
-5.6890912 15.634768 13.700697 4281482551
-5.4007325 15.834619 13.718238 4282140207
-63.400082 18.513756 8.4958649 4280358927
6.9199376 15.12741 16.320116 4280229649
6.6499538 14.898656 16.118671 4280228622
8.1817417 14.90412 16.574842 4280360735
7.5684776 14.910565 16.435331 4281147930
6.6933308 15.669791 16.459641 4280295443
7.2814116 15.434413 16.520075 4280753176
6.4694376 14.576503 15.966896 4280490509
6.2296009 14.888004 15.921727 4280818194
-49.266251 17.700762 4.5307751 4280621074
-49.067871 17.678173 4.3888874 4280359184
-49.357544 17.520416 4.4205818 4280424476
-22.925835 17.312647 14.012396 4283057468
-22.980055 17.44013 14.220728 4283056955
-22.606873 17.582283 14.202549 4283384637
6.8933563 16.451637 16.65151 4280491806
5.8260231 15.574283 15.974182 4280949522
5.9037924 15.37079 15.902478 4280686863
-45.69437 20.298288 5.1403399 4280228626
-47.078236 18.872412 4.4686337 4280162835
-46.868896 18.430788 3.9380302 4280884501
-46.805923 18.314165 3.8952193 4280686868
-47.284084 18.138512 3.8946018 4280098066
-22.48587 18.127481 15.282745 4282597441
-11.444363 17.927666 13.641092 4280032025
-43.741592 20.532749 4.1106992 4280818446
-41.70118 20.325912 4.0573397 4280888103
-41.831753 20.063606 4.0730038 4281150248
3.22086 16.993824 15.782206 4281279510
6.054626 15.652075 16.175655 4280228882
-41.773331 18.83602 4.8475046 4281150249
-41.892078 18.888439 4.805645 4281215786
-41.774334 18.990646 4.7214155 4281150249
-41.50362 21.396589 4.1687813 4280952607
-41.542221 20.01671 4.2202392 4281150504
-42.83075 19.633911 4.1782217 4281214760
-42.841927 19.154728 4.3600206 4281281053
-43.224174 19.380053 4.1999826 4281476643
-4.1293125 16.010138 13.900382 4280817427
-4.2557316 15.784448 13.880798 4280229656
-4.5047984 16.064692 13.841768 4280686866
-0.38120651 16.666115 14.760823 4280687637
-3.7968767 17.164419 14.199757 4280424208
-3.8637483 16.968781 14.113436 4280424208
-45.627468 19.709557 4.3804622 4280096270
-45.539467 19.709936 4.3032942 4280423441
-45.711327 19.511276 4.2553377 4280489230
-46.121681 19.86558 5.0318508 4280490515
-10.203776 17.064287 13.214024 4280096790
-47.505665 19.448025 5.5468578 4280621583
-46.547588 19.44175 4.8731813 4280358930
6.7899957 15.395539 16.381918 4280426519
6.9594221 15.780364 16.526497 4280295184
-52.287876 18.77087 7.0706067 4280688947
-52.81427 18.634945 7.199193 4282331709
-52.413578 19.003401 7.3314247 4285291649
-49.960594 18.808628 6.1560574 4279768085
-50.157383 18.982479 6.4184456 4280030482
-51.31115 19.111277 7.0147028 4280358945
-6.1446881 16.988466 13.668654 4280030480
-5.9245954 17.014257 13.707273 4280096525
-8.1177034 13.202853 13.46919 4280557598
-8.7759647 13.133531 13.364794 4280161299
-8.6584024 13.531896 13.386818 4280824626
-5.0567365 14.075639 13.994162 4281150508
-5.5444288 13.879413 13.939807 4281677364
-5.749917 14.390167 13.85317 4283985286
-5.7848845 17.093225 13.749056 4280097036
-5.578826 17.051983 13.767432 4280096269
-22.680626 16.527973 13.174976 4283648309
-22.519188 16.145866 12.890673 4288981656
-23.005239 16.121426 12.898663 4284701455
-20.585085 16.947922 13.186352 4283126102
8.287672 13.9258 16.396614 4280098079
7.9475374 13.790483 16.255547 4279702804
7.9053164 14.304188 16.347313 4279705370
-20.66123 16.690565 13.048988 4283581240
-25.920225 16.742338 15.77036 4280558883
-26.152414 16.606581 15.723898 4280689700
-26.133995 16.679041 15.826899 4280689700
-8.2487879 17.455887 13.698619 4280031763
-6.3771954 17.067438 13.672144 4280030738
-6.4184961 16.936983 13.614038 4280096019
-11.753346 17.535381 13.395634 4280294170
-6.6250715 17.295027 13.757321 4280096788
-6.6704693 17.148485 13.676311 4280096788
-28.211157 15.393514 15.250347 4280229659
-28.074701 15.557499 15.329031 4280163863
-27.986536 15.465755 15.255467 4280557341
