# .PCD v0.7 - Point Cloud Data file format
VERSION 0.7
FIELDS x y z rgba
SIZE 4 4 4 4
TYPE F F F U
COUNT 1 1 1 1
WIDTH 1120
HEIGHT 1
VIEWPOINT 0 0 0 1 0 0 0
POINTS 1120
DATA ascii
-86.787239 3.815969 3.6033516 4282398001
-86.626549 4.4164829 3.590416 4283584577
-83.201859 12.683769 -4.6219578 4284111183
-81.738014 12.623328 -1.3940563 4285293397
-81.365089 12.745721 -1.6093483 4285687648
-81.984756 12.691359 -1.8348446 4285031772
-89.423485 -5.0915174 0.1793232 4279179286
-84.191849 8.1626997 3.08354 4285822579
-83.84491 8.2423019 3.110096 4285755488
-87.149055 -7.3283186 -2.0641537 4280230683
-89.676994 -0.81681919 2.9637909 4280822826
-89.546005 -0.56076717 3.0343323 4281019947
-90.420197 -1.2565231 2.634079 4283256911
-83.483849 -6.2148829 2.2646656 4279440655
-82.859207 -6.4197416 2.2835751 4279506964
-83.014992 -5.9989109 2.522398 4279769373
-88.628273 -4.1359615 1.3708038 4279571469
-88.306541 -4.5082169 1.258482 4279572242
-88.694046 -3.0208797 2.1332722 4279573784
-89.08474 -3.100853 2.0093136 4279507735
-83.634041 12.603738 -3.3759899 4284569934
-83.482246 12.588648 -2.8475742 4284701521
-83.08374 12.692167 -3.1184139 4284308563
-86.821899 -4.0186634 2.3750744 4280031510
-86.096046 8.3946857 2.5849667 4286083431
-83.904503 12.135071 -9.1331444 4279308050
-84.664787 -8.3857803 -2.0222168 4281014540
-84.293594 -8.6644993 -2.7444687 4280950058
-84.749893 -8.5400133 -2.996851 4280096796
-84.355301 -8.7033463 -3.1735306 4281018412
-83.297455 12.665428 -3.6989555 4284373843
-82.783493 12.71537 -3.7473164 4284506447
-83.726761 12.234041 -8.2050877 4284567880
-84.728027 -1.5040026 3.7306271 4285355848
-84.522743 -2.0424614 3.7020721 4285032033
-84.248726 -1.5014954 3.8479271 4286084198
-88.255569 -3.497427 2.084919 4279309844
-88.248253 -3.2819529 2.1680794 4279375890
-87.447746 1.6098089 3.4363785 4288451197
-85.033058 9.7974043 1.8533745 4285754717
-86.963554 10.254792 0.8307972 4285030235
-84.053314 9.844202 2.0331364 4285031253
-84.611404 9.5943146 2.1236839 4285228887
-84.109627 9.4589453 2.3269043 4285294174
-83.960732 10.548078 1.2484856 4286016099
-84.300072 10.54241 1.153511 4285820516
-83.826706 12.147091 -9.1085958 4279308050
-84.066063 12.143843 -8.3972616 4283059010
-83.189491 12.273744 -9.430336 4281937719
-83.040634 12.300428 -9.9070225 4280624669
-83.51889 12.319805 -10.054651 4280555542
-83.355026 12.577206 -6.9359074 4283848012
-83.454781 12.48892 -7.3261356 4283978827
-88.054398 -3.2343407 2.2717781 4279375125
-88.034439 -3.4332161 2.2081413 4279310107
-87.797272 -3.3023462 2.3700695 4279309592
-86.270012 -4.7016168 2.092762 4280359701
-85.788361 -4.7345757 2.2933331 4281082644
-86.416031 -4.3387852 2.2801819 4279641358
-84.28791 -0.16328907 4.0502777 4286543972
-84.097702 -0.53966618 4.0227604 4290747989
-83.783203 -0.26054239 4.1195908 4289567349
-88.534843 -1.9091997 2.6406422 4282003242
-88.951317 -2.576951 2.2995224 4279703055
-88.827713 -2.3828936 2.4075108 4280098580
-83.276848 11.494579 -0.046173096 4284770655
-83.175682 11.839779 -0.56838989 4285688161
-82.196152 12.769039 -3.7937641 4284768091
-84.649178 -8.6022129 -4.581028 4279308050
-84.350189 -8.663887 -4.4800205 4279308050
-84.483818 -8.6806011 -4.1868172 4279308050
-89.721001 -3.9614363 1.0171261 4278981653
-87.766647 -4.8165855 1.2789021 4279506452
-86.971451 -7.7895699 -3.313736 4280759606
-87.546303 3.9384718 3.3094044 4281016603
-85.273476 10.520145 0.89278221 4285492068
-85.147827 10.341269 1.1768818 4284965988
-84.902847 10.511259 1.0178928 4285359456
-83.60614 10.488121 1.4087086 4285491552
-83.252464 10.61613 1.2924118 4284968289
-83.548073 10.702005 1.1199589 4285491551
-85.833206 10.121416 1.2813759 4284899940
-85.697342 10.347314 1.0171757 4285228386
-86.295876 10.312522 0.93510818 4284900443
-87.445007 -3.3802042 2.4975491 4279704089
-87.494179 -3.0384874 2.5675869 4280097306
-88.662766 -2.4563065 2.3932362 4280294941
-88.684029 -2.6790991 2.2845516 4280031511
-88.420883 -2.4587021 2.4262486 4280231461
-85.679749 -6.1559143 1.2191257 4279636239
-86.116158 -6.092401 0.94986153 4279375119
-85.618347 -6.3656845 0.94797707 4279833878
-86.348221 -7.7255878 -2.1020889 4280361749
-86.284409 3.1167188 3.8185501 4280363037
-86.705536 -5.7575598 0.89405251 4279832595
-86.587784 -6.2523594 0.27421761 4279963927
-85.908302 -5.09935 2.0128803 4279508245
-83.122833 12.569805 -2.3805809 4284506196
-86.798439 -7.8453999 -4.4457989 4281478977
-84.122368 10.865809 0.71714783 4285162335
-84.456337 10.627103 0.97183228 4285622369
-85.661247 10.562824 0.73212051 4285885541
-85.051292 9.3548355 2.2093391 4286544235
-85.466957 9.3451052 2.1219788 4286805101
-84.802391 7.4221358 3.2139225 4287663230
-84.391632 6.9518523 3.429575 4289962403
-84.236183 7.3962293 3.3467178 4287136379
-85.975136 -1.2195945 3.4376583 4282464305
-85.731766 -1.8309412 3.3974152 4281150750
-85.30529 -1.3471627 3.6094837 4281808426
-82.539658 -8.638752 -0.50261116 4281018156
-83.163239 -8.4275932 -0.62573051 4281219132
-82.97345 -8.7456255 -1.1122971 4283781946
-86.059799 -8.1807404 -4.2599258 4282464586
-86.185623 -8.0983362 -4.6103134 4282135098
-86.506989 -7.2649851 -1.3599815 4280294433
-85.764816 -7.4485002 -1.0315018 4280427026
-86.353577 -7.084487 -0.90800285 4279377437
-82.546333 12.660286 -7.1117191 4284636489
-82.335182 12.795099 -6.4863052 4284110663
-81.965195 12.832622 -6.7892742 4285160272
-87.78598 -1.8686161 2.7485886 4282530607
-87.285362 -1.7812271 2.927866 4281281830
-87.885361 -2.9666414 2.4278622 4279573018
-87.851616 -3.8337975 2.0936623 4279573266
-88.028877 -3.6098967 2.1303349 4279310107
-88.167099 -3.740324 1.9886189 4279178771
-88.137253 -1.6687717 2.7619152 4283709478
-88.235596 -2.1124191 2.5901566 4280429094
-88.57637 -2.2483644 2.4901695 4280822818
-86.462639 8.3190479 2.5210285 4284964185
-80.276649 6.537919 4.3349648 4284767832
-79.58606 6.3593273 4.4904919 4286477917
-79.524345 6.9971924 4.3329544 4286410586
-86.073524 -8.1472702 -4.7867947 4282796625
-85.91597 -8.244895 -4.888031 4282464586
-85.90712 -8.2349453 -4.5706463 4282464586
-86.196579 -7.8394594 -2.2580948 4280361749
-86.203171 -8.0661955 -4.7822418 4282203966
-85.263412 -8.1759205 -2.1586151 4279181596
-87.141304 -4.1698322 2.1659622 4280030996
-87.489433 -3.873189 2.2360229 4279965713
-88.191277 -3.0120487 2.2790375 4279770128
-88.4105 -3.0978107 2.1766243 4279639056
-87.977127 -4.0218878 1.8909836 4280030480
-87.041122 -4.5923796 1.8679218 4280162323
-87.573227 -4.220355 1.9464264 4279900176
-86.821831 -4.1721411 2.2544651 4279899922
-86.190292 -5.7560143 1.3052902 4279047183
-85.847794 -5.7602868 1.5580254 4279440404
-86.059082 -5.5636048 1.5936775 4279113744
-82.983093 12.703548 -3.4429722 4284374352
-83.550682 12.70561 -5.8083534 4283716180
-82.953629 12.770232 -5.8828297 4283912012
-83.296951 12.680029 -6.2333794 4283716175
-82.564827 12.445789 -8.0154133 4279308050
-82.475388 12.431637 -8.0719938 4284438608
-82.648384 12.522939 -7.6824493 4279308050
-83.067009 12.490667 -7.5619926 4284241482
-86.551422 -6.7041435 -0.44271851 4279179283
-86.021667 -7.0251255 -0.53061676 4279310615
-83.873352 -8.889122 -4.0886116 4279308050
-83.622551 -9.0260983 -3.5128288 4280956215
-84.01757 -8.8355713 -3.9429035 4279308050
-83.663727 5.3365803 4.0072269 4290821038
-85.144501 -7.9308186 -1.4007778 4280429355
-84.916687 -7.677978 -0.75560379 4279769370
-83.966064 -8.7513256 -2.4364491 4280688679
-83.976273 -8.6392937 -1.9537849 4280762155
-86.022034 -7.6237993 -1.5888329 4280954665
-83.230759 3.7206697 4.3467197 4291282606
-83.853325 3.5058498 4.2822819 4289305976
-83.268318 2.9870234 4.3931351 4291346321
-82.370598 12.78344 -3.4597626 4284703580
-84.646652 6.5090299 3.4606647 4289571492
-83.955276 6.4782801 3.6635303 4290360486
-83.080627 12.65639 -6.6385441 4284109901
-82.041359 12.898506 -5.6268616 4283913036
-81.884491 12.896353 -5.3164005 4283715913
-81.372009 12.976131 -5.5213032 4283780686
-85.500145 2.9359021 4.0449276 4280426005
-86.880165 1.8520823 3.6208858 4284046443
-83.695099 1.5800285 4.3162174 4292129953
-83.218987 1.0756717 4.3414116 4289439116
-83.163338 1.5408149 4.3854637 4289040465
-86.66188 6.2105093 3.0767021 4283518540
-84.988525 7.0436978 3.2476978 4287332695
-85.298431 7.4928789 3.0730648 4287529057
-85.641838 5.8923731 3.4132938 4283056179
-85.695839 5.5472221 3.5415707 4282989876
-82.249016 12.580351 -1.6273651 4284833882
-82.682831 12.475796 -1.6189175 4285096280
-82.181969 12.483956 -1.2956963 4284834392
-81.911209 12.849236 -2.7074203 4284637522
-81.597672 12.817413 -2.129406 4285293661
-81.094505 12.947905 -2.4925785 4285227092
-83.391006 -7.2964511 1.0822639 4279768590
-83.456207 -7.0969625 1.3623562 4279638287
-83.865135 -7.0427103 1.2060242 4279638299
-81.606476 12.889356 -5.0942402 4283846988
-81.436493 12.868986 -4.832716 4284110420
-80.963333 12.972256 -5.0385361 4283781973
-83.266945 12.336968 -8.0588875 4283913546
-82.963577 12.421495 -7.8885136 4279308050
-86.185539 -2.2623773 3.1892052 4281347368
-86.382156 -1.7348433 3.2200394 4281215014
-86.864876 -2.2027693 2.9910831 4280230936
-87.7276 -3.5847139 2.2874966 4279572249
-86.505257 -4.8696022 1.8777313 4280097050
-82.984039 10.883612 0.98694992 4285557093
-87.979881 0.39132071 3.2181816 4282598223
-84.914391 -0.14374256 3.9405155 4283844640
-84.420898 0.3570199 4.1111088 4289840376
-87.272385 -3.6243343 2.469183 4279966741
-82.607552 12.833255 -5.5847168 4283912265
-82.391678 12.839125 -5.9784966 4283453770
-86.504807 -5.4715948 1.3644047 4279964433
-87.846443 -1.3389511 2.8845997 4284171061
-85.976013 4.4702158 3.783577 4283517509
-85.615685 7.8111053 2.9125061 4285752922
-85.707558 7.5352025 2.9476776 4284897872
-82.647766 12.584893 -1.9708366 4284703065
-83.982117 11.320114 0.0013484955 4285556572
-83.687973 11.150705 0.39042854 4285097043
-81.935593 10.346044 1.9112873 4286083943
-81.341774 10.58967 1.8735085 4285819751
-82.025574 10.678775 1.5284271 4286083427
-84.826385 8.2979317 2.9019947 4287667336
-84.610237 8.1111956 3.0253277 4287070847
-84.477547 8.3559837 2.9493237 4286085232
-83.979698 10.352141 1.5185661 4285031261
-85.406502 9.9780064 1.5553474 4285426015
-85.330025 10.154113 1.3652573 4285229152
-82.772415 12.750872 -6.3091831 4284174923
-85.733902 -8.314311 -4.9911346 4282464586
-85.657372 -8.3427391 -4.6331692 4282073416
-86.04451 -8.21984 -5.2831841 4282796625
-85.823341 -8.2935228 -5.2066936 4283848543
-85.987679 -6.4386754 0.51663208 4279702545
-85.347801 -8.4590969 -4.3107853 4282598996
-86.187935 -8.0940218 -4.8413448 4283188311
-79.857147 2.4510117 4.9817142 4282798161
-80.025208 2.9600077 4.9474468 4284240192
-80.379028 2.6510067 4.9002266 4284571997
-83.012726 12.605415 -7.0487785 4284109901
-85.957466 -8.2383175 -3.7902184 4282073416
-85.681114 -8.3029928 -3.4448986 4281481533
-86.035629 5.0164657 3.6480579 4283055935
-85.563148 5.1840467 3.7061729 4283321152
-86.9459 -6.8189325 -0.97760582 4279507482
-85.716164 -8.3322001 -4.2320137 4281807429
-86.120033 -8.1672106 -5.0533199 4283188311
-82.753334 12.1114 -0.82597351 4285097305
-82.08313 12.123384 -0.47104263 4285425497
-82.029915 12.3429 -0.84492493 4284900183
-86.583534 -3.6849203 2.6701889 4280819227
-86.709076 -3.7884846 2.5647717 4280162837
-87.901932 -4.3741884 1.6296024 4279702544
-85.043053 -6.8821964 0.54257393 4279441174
-84.653282 -7.1310649 0.45567703 4279244565
-84.699036 -6.9630466 0.73024368 4279309844
-85.125336 -7.2615142 -0.20858383 4279899917
-85.525375 -7.2218332 -0.46743202 4280095504
-85.335854 -6.9080353 0.22040367 4279900180
-85.536888 -6.9834995 -0.075052261 4280292628
-85.897934 3.7327251 3.8971481 4282467381
-82.554405 3.1817183 4.4956474 4287991689
-80.550613 12.546368 -0.63048935 4285886046
-81.058044 12.570686 -0.81842041 4285820257
-81.260147 12.444502 -0.6131382 4285360734
-87.773041 -0.90958118 2.9957581 4282201897
-88.006798 -1.1074057 2.9372692 4281939245
-84.689278 10.432596 1.1861267 4285293914
-82.961433 12.365147 -8.1202898 4283846983
-81.806206 12.865281 -6.885498 4284571224
-81.992874 12.814362 -6.9451714 4284833110
-84.727486 -4.5736599 2.7955742 4282466862
-84.498001 -4.2565036 3.0454712 4284045634
-85.0867 -4.0615544 2.9745159 4285032517
-86.047989 -4.22402 2.5240421 4281018653
-86.147896 -3.9430199 2.6705303 4281543707
-86.32103 -3.9727116 2.573885 4281345049
-83.449593 6.0395927 3.8887558 4289965474
-82.703934 5.6200509 4.126215 4286283891
-82.787888 6.218977 3.9850254 4287989898
-86.136024 6.1172595 3.2155323 4283188541
-80.552803 13.033686 -3.8196278 4284440415
-80.879631 12.942839 -4.0184422 4284308311
-81.038864 12.960565 -3.5957813 4284506190
-81.952766 12.801136 -4.8171272 4283847504
-82.41642 12.728033 -4.4606285 4284569947
-81.649811 12.808416 -4.534338 4284438871
-81.267342 13.007406 -6.5038834 4284045644
-81.739021 12.943249 -6.1181679 4284372300
-80.820206 13.092418 -6.047987 4283716681
-84.07869 -8.7540913 -4.3675632 4279308050
-81.073685 12.896557 -4.6354523 4284307284
-81.241348 12.868193 -4.2694168 4284504917
-81.853424 12.789968 -4.1162529 4284767315
-86.412003 -3.8286018 2.6450062 4281345049
-86.171844 -3.7663589 2.7740574 4281346071
-86.839417 -3.5519323 2.6583557 4280427544
-85.403404 -8.4163876 -4.7665234 4279308050
-86.38781 -7.6139154 -1.9009533 4280691998
-86.695114 -7.3861771 -1.7473145 4280494900
-83.262833 -8.8629522 -1.7508717 4281283357
-83.66935 -8.5163202 -1.2676582 4283061343
-87.045982 -1.3188648 3.0916195 4284245829
-86.611122 -1.2146397 3.2510986 4283059012
-85.692696 -7.9844437 -2.0650101 4280033818
-86.563568 -3.8993778 2.532671 4280819478
-86.044189 -8.1578598 -3.342907 4280953650
-85.506813 -6.6350689 0.59601212 4280096022
-85.83989 -5.9502311 1.3652611 4279637010
-85.434097 -6.1012816 1.4648323 4279637523
-84.968269 -3.5668306 3.2695065 4285358930
-84.718521 -3.1488805 3.4873123 4285621078
-85.412369 -3.2858686 3.2359161 4284108079
-84.883301 4.9036684 3.8966827 4287067209
-84.860672 4.3298655 4.0407066 4284901202
-84.461975 4.454277 4.0849171 4290873711
-85.588844 -8.357914 -5.1362343 4283714909
-86.981323 -3.9840231 2.3582764 4280031510
-85.795006 -8.0024538 -2.2859573 4280164385
-80.716942 -6.1008615 2.9800549 4280360471
-80.402092 -6.6803093 2.6488037 4279769875
-80.039696 -6.1664343 3.1144314 4279835415
-87.516815 -2.4713221 2.6957054 4279574047
-85.165764 7.8066177 3.0204449 4287729022
-84.997894 9.00284 2.464962 4286281844
-83.965851 8.8358812 2.77915 4285820517
-83.641235 8.6486015 2.9256115 4285951333
-86.200333 -0.056614399 3.6390724 4290368717
-83.576111 7.4334016 3.4688911 4287070329
-83.723099 6.9661627 3.5850239 4289111978
-83.633255 11.990456 -1.08214 4285556829
-83.954681 10.152937 1.781229 4285162327
-82.483681 11.179183 0.72296906 4285622107
-83.036575 11.198809 0.51032257 4285227863
-82.601196 10.385442 1.6958065 4286346350
-83.179672 10.423941 1.5387077 4285230176
-83.061188 10.194998 1.8293133 4285951839
-81.253807 8.7081823 3.249033 4287595379
-81.802803 8.4712343 3.2800045 4286412651
-81.105667 8.306901 3.5218525 4286806891
-85.418076 9.8284807 1.7141266 4285623134
-76.991463 13.340819 -1.4473801 4286216561
-76.974586 13.499632 -1.9289341 4286281325
-77.793602 13.300846 -1.6556187 4286347368
-85.598404 -0.58338118 3.6920414 4282662447
-87.068741 -3.1935034 2.7045708 4279966236
-87.038864 -2.7903671 2.8117619 4279770897
-84.28009 1.5130982 4.2476749 4286935371
-84.763588 1.9398761 4.1860485 4281610268
-84.833572 1.3745985 4.1550064 4281675307
-80.030251 12.416318 -0.21179199 4286345835
-80.838936 12.302075 -0.18371201 4285756004
-84.991394 3.3398767 4.13307 4286471774
-84.843742 2.5802464 4.1836433 4285095240
-86.803955 -3.9046059 2.4579411 4280162837
-86.363533 -0.66475105 3.4519196 4285560441
-86.711761 -4.4716978 2.0685654 4279637261
-82.155815 12.672638 -7.5244503 4284636755
-85.718124 6.3739562 3.2074833 4282989880
-82.716988 12.700539 -6.7127838 4284241477
-80.719566 12.950638 -4.3666115 4284308313
-82.151306 12.824459 -5.0873737 4283717201
-85.250175 -8.412262 -3.2417889 4281216811
-84.410873 -8.7295895 -3.6526184 4281017382
-82.766197 10.641183 1.3602924 4286344293
-82.733986 11.741133 -0.22535133 4285557604
-82.561806 11.497669 0.2280407 4285491554
-83.973045 10.705195 0.99873924 4285491555
-85.007301 9.9127932 1.739706 4285557342
-88.066925 -2.532239 2.4810677 4280096539
-82.573509 12.756042 -4.8645267 4284306768
-77.780319 13.423515 -2.0347919 4285822572
-84.11528 -8.7199821 -4.5452957 4281744192
-84.07531 -8.7232552 -4.7111149 4281744192
-83.813316 -8.8124752 -4.6015739 4279308050
-84.849571 -8.6130323 -5.4397125 4283191905
-84.719742 -8.6665964 -5.4013271 4282668116
-84.691216 -8.6228123 -5.1709671 4282668116
-85.1091 -8.1389618 -1.8266029 4279971365
-85.753632 -7.8731318 -1.8285999 4280624671
-85.453209 8.1023378 2.8578835 4287465083
-85.019035 -6.6776443 0.94478798 4279571473
-84.105499 -6.5977659 1.660387 4279376403
-83.365623 -6.8459263 1.7344799 4279637778
-83.84845 -6.5122924 1.8792858 4279441428
-84.82299 -6.3117905 1.5945911 4279114262
-85.203323 -6.3605938 1.275898 4279179536
-84.454735 -6.6886373 1.3289185 4279441947
-84.571709 -6.0459957 1.9960899 4279506703
-84.296402 -6.1415019 2.0257511 4279768595
-84.519539 -5.9461594 2.0995941 4279703565
-86.253288 -5.2628145 1.7116146 4279704598
-85.790192 -5.4612174 1.8482666 4279244563
-84.849686 -7.1862988 0.1519165 4279375896
-84.53978 -7.5688462 -0.26823807 4279244563
-85.59639 0.23077774 3.8573742 4284247153
-84.363922 -6.9759483 0.96989822 4279769105
-81.186668 12.97134 -3.0755463 4284702029
-80.442276 13.088167 -2.8930073 4284637530
-80.404846 13.099476 -3.4571514 4284505434
-83.501328 10.012533 1.9692612 4285754462
-82.921959 9.8616638 2.1541195 4286345566
-86.271294 6.5729237 3.0219498 4282138177
-81.683113 12.814365 -7.3728943 4284374104
-82.815346 12.305258 -1.2783661 4285096791
-85.170715 -8.3558197 -2.7961483 4279903775
-85.434402 4.6607513 3.8639069 4283189551
-85.29908 4.0671844 4.0107899 4284700760
-85.238937 5.5119133 3.6505966 4286081339
-84.692619 3.8364453 4.1488533 4288712314
-82.42186 9.0762148 2.7949562 4286741349
-82.44162 8.7324352 3.0177269 4286739553
-81.8871 8.8772278 3.0062084 4286675563
-81.865295 7.6255169 3.712841 4286085221
-81.104279 7.3969369 3.9303341 4284966744
-81.058784 7.8872738 3.7416553 4286215011
-84.433517 -8.3311691 -1.5924168 4281737761
-85.166298 1.7776766 4.1078434 4280688414
-86.869957 -1.6455307 3.0928707 4281609008
-85.564529 -2.3654628 3.3571949 4281546796
-85.004425 -2.4729333 3.5166645 4284110893
-85.099976 -1.9545722 3.5575771 4282463533
-86.101616 -3.333683 2.9995632 4281280293
-86.362434 -3.5517564 2.8167591 4280755230
-85.712051 -3.6478548 2.9941368 4282201371
-83.813431 -7.2945862 0.81514359 4279834900
-83.329361 -7.5943971 0.6090641 4279637263
-84.27417 -7.2317619 0.59068108 4279703573
-81.711578 12.827578 -3.7776318 4284833621
-81.35511 12.875034 -3.8958931 4284702548
-85.488693 -2.7419643 3.3255997 4281874989
-86.016647 -2.7080593 3.1735516 4280692772
-88.414833 -2.8027868 2.2903557 4279966488
-80.341118 13.165197 -6.4206505 4283387978
-80.080879 13.202938 -5.9196091 4283519055
-81.317001 12.975204 -6.7299385 4284045644
-80.564186 13.096003 -5.4761143 4283650890
-77.616661 13.687244 -5.0860634 4283651161
-78.22319 13.567923 -5.5821381 4283650899
-78.329552 13.561172 -4.9972992 4283651670
-82.502121 12.772688 -3.1028461 4284440406
-81.880539 12.865513 -3.1792126 4284899667
-79.118393 11.846123 0.94142151 4287004023
-79.63343 11.812086 0.89576149 4286674545
-79.414757 11.63298 1.2191849 4286806900
-81.470779 12.887835 -3.6170559 4284768600
-84.285912 -8.6664619 -4.6906395 4280954657
-84.233665 -8.6978989 -4.9060097 4281872958
-84.678345 -8.590641 -4.8934708 4281416499
-84.860603 -8.5576859 -5.1793003 4282271822
-84.668518 8.4999828 2.8323002 4286675316
-84.41362 8.7240162 2.7620735 4285820517
-84.612457 8.9956284 2.5423222 4285690988
-84.558701 8.8431978 2.6584091 4285950822
-84.399338 8.9842567 2.5975609 4285754467
-84.656113 9.2518349 2.3597031 4285295463
-84.548904 -8.6926022 -5.2130737 4282269255
-85.34301 -5.4919019 2.0592003 4279900442
-83.808037 -7.5766788 0.32505798 4280423699
-84.323761 -7.4330349 0.17016602 4279965721
-83.952332 -7.8131881 -0.20985413 4280227343
-85.742126 -5.6491256 1.7308807 4279440404
-82.580757 11.945175 -0.48496819 4285360218
-84.362617 3.3916035 4.2251034 4289042823
-84.254089 3.7855396 4.2097225 4289439115
-84.895508 -8.5325298 -4.8854408 4281940289
-85.116486 -8.4469128 -4.9928722 4279308050
-85.047531 -8.4982166 -5.2351799 4282598996
-84.979416 -8.5594673 -5.478096 4283721065
-82.755798 -8.9645119 -1.4505253 4281739289
-84.000885 -8.8531303 -3.3517075 4281415228
-82.339546 12.730425 -2.3101482 4284440921
-82.757942 12.723348 -2.7648869 4284373586
-85.160721 -5.0458403 2.4037151 4280887570
-85.34317 -4.5212822 2.6274223 4282134567
-87.08725 -3.4278889 2.6172733 4280032536
-86.679863 -3.3521996 2.7881718 4280688416
-85.133011 -2.9179378 3.4087868 4283779124
-84.406158 -4.9853616 2.6712551 4280755481
-84.834969 -4.9235048 2.5823612 4281281820
-84.633324 -5.2846165 2.4541283 4280032282
-82.362244 10.912784 1.1284275 4285950810
-84.223198 8.9453325 2.661272 4285752931
-83.782234 9.1533222 2.5958157 4285359708
-84.274216 9.1395359 2.5160713 4285687392
-85.445908 -5.6836157 1.8843822 4280031512
-84.18 -0.97003984 3.9402409 4290484322
-84.511421 -0.63989019 3.9328289 4286876813
-83.170967 -0.10805273 4.2310066 4292663749
-82.582336 0.436234 4.3802261 4292202685
-83.432121 0.5546608 4.2779903 4293971119
-80.026352 11.456297 1.3375874 4286477413
-80.880524 11.466318 1.0416317 4286083171
-80.574692 11.126198 1.5749893 4286543205
-81.940613 11.453249 0.58672905 4285951325
-82.052574 11.150803 0.91851425 4285755234
-82.040131 -8.4797649 0.15022659 4279638050
-82.722275 -8.2706623 -0.02255249 4279704076
-84.978615 -8.5382566 -4.5133305 4279308050
-84.309494 -8.1420832 -1.0759411 4281806391
-84.49144 -8.6189499 -4.6898613 4280889642
-84.485931 -8.6355171 -4.9191666 4280889642
-82.53569 -9.392561 -3.1362419 4281615169
-82.211349 -9.4382935 -2.8382263 4280493861
-82.68438 -9.2849846 -2.7176495 4280626475
-83.934044 -8.7771378 -4.8472996 4281744192
-83.338058 -7.9958477 -0.046743393 4279965720
-83.912544 -8.8178978 -2.7364426 4280688679
-79.308853 13.167284 -2.1406727 4285360229
-78.718178 13.314104 -2.2351837 4285361255
-78.982872 13.352613 -2.6616325 4284901217
-86.546944 -2.6230965 3.012085 4280363041
-86.48378 -3.0264616 2.9441929 4280887582
-84.311203 -3.445466 3.4984932 4285687910
-84.070763 -3.0145864 3.6824398 4289631604
-83.883003 -0.81888962 4.0166988 4293433483
-83.487183 -0.88608742 4.0742359 4292268478
-80.403259 3.5616062 4.8408203 4284898380
-80.742027 3.1594677 4.8159428 4286473818
-82.295723 -0.44855595 4.3123798 4293977809
-81.65844 -0.0096330643 4.473032 4294243569
-83.831276 1.0610843 4.2767296 4289765005
-84.395531 0.94312954 4.1918926 4286871439
-82.781013 4.2054682 4.3460255 4289176466
-83.48349 4.5050535 4.2015438 4291212955
-85.137009 8.3701973 2.8082047 4288972927
-84.073387 -6.0298815 2.1931 4279506454
-83.691666 -5.7284751 2.4896564 4279899661
-84.416672 -5.6854939 2.2977619 4279442199
-85.789246 -3.0293617 3.180439 4282004526
-84.958656 -5.4364557 2.2641258 4280097294
-85.421356 -5.1830258 2.2133179 4280293907
-80.927643 -2.478169 4.2045269 4282004530
-80.51667 -2.9143023 4.1909752 4281543462
-80.161415 -2.5283928 4.2937355 4282857749
-79.442841 13.326279 -5.6964531 4282995534
-78.851105 13.450557 -5.4248028 4283454545
-78.892715 13.400463 -6.0260963 4283322965
-81.481377 12.913678 -3.3679962 4284768600
-81.830841 12.842031 -3.5207901 4284833621
-80.390381 13.150231 -6.4364529 4283650374
-80.827797 13.085119 -6.5743809 4283848011
-81.896187 -7.3823681 1.7313557 4279768332
-82.586426 -7.048625 1.8328152 4279638546
-82.336182 -7.3549905 1.5644455 4279701774
-83.318237 8.2123652 3.1990643 4285820250
-83.562103 10.286948 1.6772041 4285293919
-83.50882 10.929787 0.79440498 4284966241
-83.075676 8.67805 2.9763241 4286147680
-82.61232 8.3314695 3.2335644 4286805864
-84.694695 7.7905478 3.1240501 4287137917
-83.50708 8.8857632 2.8079491 4285884771
-84.917267 -0.89889574 3.7978935 4284241702
-83.432892 9.5829897 2.3211327 4287003501
-82.712509 9.4508286 2.4979839 4286676073
-83.720695 -8.8521633 -4.5742435 4279308050
-83.398796 -9.1790028 -3.9516144 4282138950
-84.03495 -8.8024502 -2.983387 4280755753
-83.680962 -8.9449463 -2.9519176 4280887855
-82.297218 -9.3634644 -2.4641838 4280493861
-82.143326 -9.350378 -2.0702877 4280625698
-82.575111 -9.2354794 -2.2001534 4279704097
-83.744125 -8.1845741 -0.67163849 4282332984
-80.105026 13.129974 -3.8764343 4284046683
-80.407539 13.039809 -4.1200504 4284242775
-80.26313 13.102627 -5.0158691 4283520592
-80.687363 13.012346 -7.0571671 4279308050
-80.325043 13.147318 -6.4791451 4283387978
-82.179611 5.0709934 4.3219566 4284638818
-81.73703 5.5057316 4.3277702 4283322180
-84.472992 -3.8699517 3.2658234 4285295188
-83.74292 -3.343082 3.6678238 4284505680
-83.239326 -3.2709351 3.7636719 4288515696
-83.493164 -2.9407086 3.8117504 4289897602
-83.8629 -6.3210392 2.0596085 4279375633
-83.063324 -7.2490315 1.3322182 4279505934
-82.34684 -9.1033001 -1.3914242 4281804585
-81.981194 -9.3031282 -1.5888481 4280432670
-81.767281 -9.1955013 -1.0159264 4281089869
-83.099213 -1.4114232 4.0713615 4292002727
-82.949547 -0.78672361 4.1711044 4292658077
-83.555206 -8.8960867 -2.2826633 4280953890
-82.475075 3.6495469 4.463316 4288385415
-83.733078 -2.5497971 3.8348808 4290294174
-79.907272 -0.28256321 4.7027016 4290763512
-79.509186 -0.75750399 4.6837921 4281943621
-79.24575 -0.18406439 4.8065319 4284040751
-82.314201 2.5736771 4.5697556 4287534467
-82.995758 2.3173618 4.4436932 4291480752
-82.262177 1.9757156 4.575407 4288316290
-83.455078 2.0092411 4.3637886 4291539359
-82.775436 1.7547159 4.4608574 4290421890
-81.812378 8.0555248 3.5138626 4286149999
-82.635002 7.9183969 3.4425106 4287004524
-84.793343 -5.927228 2.0048656 4279441174
-84.377922 -6.3328619 1.8156605 4279309584
-84.497246 -6.1582932 1.920969 4279309584
-84.721832 -6.0398607 1.9392986 4279178771
-84.827728 -6.094008 1.8207378 4279441174
-80.75679 12.655874 -0.98390388 4285754725
-81.20015 12.643467 -1.1532516 4285688930
-84.118057 -5.3453932 2.5699024 4279508251
-84.413208 -2.6224694 3.6633034 4287855975
-82.716835 -3.9297223 3.6197319 4285098567
-82.410004 -4.606976 3.4187889 4283778601
-81.783951 -4.086844 3.7463875 4285031765
-78.332344 13.561825 -3.8562984 4284374875
-78.625565 13.503175 -4.4625816 4283783506
-78.915001 13.443851 -3.9154186 4284373593
-83.03904 9.0828485 2.7190514 4286345574
-83.522148 7.9008703 3.3134594 4286742133
-84.302872 10.039521 1.8159523 4285030742
-82.035309 7.1380358 3.8630028 4285688414
-84.620377 9.8601665 1.8997574 4285097563
-83.985703 4.1153359 4.1997528 4292200101
-84.171371 4.7943745 4.0402832 4290749585
-82.769753 7.5075297 3.6063251 4287136120
-76.515106 6.5157728 4.9140224 4283784530
-76.580391 6.9665413 4.8676739 4284112473
-77.124512 6.6772194 4.7621326 4284833875
-81.988647 6.1207142 4.1560879 4283649612
-80.933334 5.9169836 4.3819275 4283386949
-80.783882 12.76458 -1.4075108 4285688674
-80.169258 12.75927 -1.1856747 4285623651
-80.92514 12.869513 -1.9399948 4285621855
-82.093391 11.825359 -0.02374649 4285426782
-80.523163 13.003553 -4.6809616 4283979859
-81.010284 9.4248095 2.8678074 4286544498
-80.562813 9.7538052 2.7876434 4285820515
-81.229477 9.878067 2.5014687 4285951331
-85.019348 8.100153 2.9504375 4288125318
-81.839066 9.9964161 2.2327633 4286346859
-82.465141 10.093211 2.010582 4286477149
-83.288086 8.4583664 3.0808506 4286082397
-82.975861 -9.4016542 -3.6920815 4282728776
-82.540932 -9.4731178 -3.4549789 4282071874
-82.866783 -9.3574476 -3.4157867 4282534213
-84.17543 7.8209414 3.2232895 4286413429
-81.436989 11.434233 0.85745621 4286017378
-81.706924 11.249956 0.95587158 4285885543
-81.44735 12.084288 -0.055276871 4285688154
-80.754684 12.011772 0.33504486 4285296223
-83.221519 -6.6147161 2.0281944 4279375121
-84.172646 -6.3077836 1.9430485 4279441173
-82.330589 -8.0753212 0.514328 4279441172
-82.853951 -7.8677073 0.47452736 4279374860
-82.942528 7.031642 3.7351017 4287202167
-83.224396 6.5582948 3.809164 4287797397
-77.930626 2.5081129 5.1621189 4287854685
-76.804283 2.3969436 5.2560654 4284900441
-77.284012 2.9029551 5.2088699 4285688659
-80.415848 13.012609 -2.3531914 4284834658
-81.448479 9.1362677 2.9313297 4287136630
-81.674431 9.5789089 2.5834332 4286412652
-82.081757 9.3053131 2.6884785 4287069037
-84.182236 2.1463614 4.2792912 4289639805
-82.258476 4.5202889 4.3934059 4286741367
-82.8853 4.894875 4.2331314 4288056452
-84.362839 2.8472834 4.24786 4288843632
-83.947044 3.0602193 4.3004761 4292197265
-82.508522 -6.7710838 2.1181126 4279834900
-84.204811 -4.6258068 2.9244022 4282465319
-83.282234 -7.0417466 1.5334911 4279638286
-82.442505 -5.8312197 2.7686615 4280688407
-82.962967 -5.4697847 2.8399143 4279967769
-83.298996 -4.2462621 3.3547993 4283383076
-83.870453 -3.7817893 3.4557648 4283255098
-84.003052 -4.2267985 3.1895142 4282729268
-83.157372 -2.5233278 3.920063 4292394650
-82.565781 -2.5266671 3.9776669 4294108878
-82.763443 -2.0210176 4.0388622 4294565332
-81.56694 12.533679 -0.9879837 4285227868
-79.053535 11.320434 1.7183228 4287068524
-78.675171 11.633112 1.3437729 4287727731
-83.690094 -8.895566 -2.5968475 4280822562
-82.601189 -9.0780487 -1.616087 4282070305
-82.800766 -9.076602 -1.8560257 4279575586
-83.074768 -9.0941334 -2.3396587 4280560167
-83.433159 -9.00667 -2.6153469 4280757805
-83.217445 -9.1350603 -2.9510307 4281612339
-83.182716 -9.2188892 -3.4355602 4281808695
-83.085808 -9.3712692 -3.8717842 4282863181
-83.09726 -9.3019981 -3.6738663 4282863181
-79.074799 -10.187433 -0.36240196 4280362017
-79.391617 -9.9431286 -0.1378212 4280297509
-79.559471 -10.001316 -0.43283463 4280493345
-81.952568 -7.0439672 2.029541 4279965199
-79.918869 13.133502 -6.8146038 4279308050
-80.20153 13.082478 -6.904047 4279308050
-79.900131 13.224344 -5.3704491 4283585616
-82.299889 9.7270813 2.3423061 4286609005
-80.248306 10.055143 2.6862125 4285557603
-80.776909 10.14441 2.4521141 4285558370
-79.149437 13.376969 -4.304718 4284176468
-79.35685 13.332655 -3.9515724 4284046166
-79.543442 13.265835 -6.2116718 4283191374
-81.316154 11.737684 0.49703598 4285819746
-82.344345 -5.4528761 3.0218925 4280099353
-82.538139 -5.1126423 3.1517944 4280820245
-83.326912 -3.6661768 3.6074009 4285358398
-80.119896 9.2567015 3.2323036 4286018927
-80.77565 8.9712448 3.2179813 4287792247
-80.104286 8.7448874 3.5230007 4287792765
-83.76152 -0.5618453 4.0843239 4294355840
-83.428123 -0.50347757 4.1478481 4291604397
-83.859909 0.17496252 4.1739273 4290552970
-85.19062 -5.8835649 1.8412838 4279899925
-84.926743 -5.9409614 1.9211025 4279441174
-85.095947 -5.7793717 1.9790592 4279769110
-79.856125 13.225388 -6.2681427 4283388238
-79.950661 13.140083 -4.582428 4284110678
-79.670753 13.24713 -4.9109268 4283848278
-82.051796 -7.9033065 0.9315567 4279572756
-81.793076 -8.2325354 0.69643974 4279572753
-84.426521 4.0949745 4.1566143 4290223996
-78.841812 13.462168 -4.9710712 4283716685
-79.319817 13.35558 -5.196373 4283585612
-79.163803 13.374638 -4.7387619 4284241489
-80.290192 13.046898 -4.3976688 4283979862
-79.73909 13.238759 -3.6962585 4284440416
-79.756027 13.255647 -3.2923832 4284572512
-82.895363 -9.2921743 -3.1290417 4281545008
-79.56443 13.258509 -4.2594948 4283980377
-79.712852 13.224536 -3.992424 4284243295
-79.481339 13.279819 -4.557724 4283848024
-80.715813 10.775324 1.9170055 4285820000
-80.081337 10.83136 2.0947838 4286542954
-82.936348 -7.5187302 0.96405602 4279440400
-82.394279 -8.924015 -0.97037506 4282529319
-82.9534 -2.919908 3.8751316 4291607170
-82.80146 -3.2509089 3.8163338 4290091372
-82.314209 -2.9971194 3.9239655 4294633914
-81.920349 -7.7523365 1.2395039 4279572240
-81.922745 -7.585597 1.4750729 4279572240
-82.209244 -7.5245786 1.3673954 4279701774
-77.481735 13.675459 -5.7360344 4283584852
-83.990707 -4.9875684 2.7895565 4280754968
-83.586159 -5.2036014 2.8026714 4280688664
-83.687416 -4.6961865 3.0299835 4282069017
-79.315643 13.349936 -3.6343861 4284309074
-83.726761 2.566525 4.3409901 4292789417
-84.514206 -1.107305 3.8527241 4287005292
-82.928215 -3.5261889 3.7254925 4288052061
-81.291458 11.209961 1.1985264 4285886299
-81.799667 11.01085 1.2120476 4285755232
-81.285439 10.905984 1.5563889 4285886824
-82.077812 1.4073944 4.5707378 4288323997
-81.573654 1.6688299 4.6943378 4286545507
-81.717255 -6.4881287 2.4781704 4279769366
-81.972389 -6.6485176 2.3305779 4279178514
-81.736374 -6.8050604 2.2620888 4279440913
-79.730019 13.209591 -2.7412109 4284376671
-79.004021 13.415243 -3.3259659 4284505955
-82.104141 3.978128 4.4955902 4287859328
-81.897644 3.5735874 4.5768661 4286477934
-81.30484 3.688596 4.6704521 4283321921
-82.388649 6.6394105 3.9559593 4285559402
-81.242538 4.4623737 4.5912018 4284306760
-80.894814 4.1040678 4.707407 4284634435
-80.721817 4.5540943 4.6720715 4284240718
-81.796341 2.9372268 4.648819 4286085492
-81.448997 2.4705205 4.7296791 4285358420
-78.443321 11.896906 0.98493195 4287006838
-77.904533 11.697916 1.3545609 4288318078
-77.842453 11.934013 1.0259209 4287728002
-80.261269 12.916967 -1.8267384 4284901214
-78.569908 13.10277 -1.4528542 4286084204
-79.036743 13.121828 -1.7750511 4285623907
-79.352554 12.917942 -1.2935028 4285689970
-79.558975 13.173309 -2.3856392 4285097828
-79.982391 13.139721 -4.204689 4284110683
-79.50354 12.257428 0.17643738 4287004528
-79.287941 12.496011 -0.24069786 4286610289
-83.749756 -6.8894348 1.4985828 4279376918
-83.983337 0.62533665 4.2142963 4292063652
-84.24511 -7.9235611 -0.62925911 4280030495
-79.824768 -9.6084538 0.08530426 4279507479
-79.484375 -9.6031151 0.34817886 4279115034
-79.926987 -9.367569 0.39727974 4280098318
-81.817535 -8.8889217 -0.37124252 4281281341
-80.10685 11.916998 0.65835381 4286019177
-80.160202 12.168875 0.23158836 4286149997
-80.594704 -1.2254171 4.4669514 4286743158
-80.159096 -0.79764843 4.5960617 4288403138
-80.676712 -0.73919678 4.5214195 4291608511
-80.373566 10.34242 2.4374619 4285361508
-81.314644 1.0846729 4.6808662 4287990937
-80.826401 1.4982414 4.804863 4286157201
-80.5214 11.731237 0.81660271 4285952612
-77.414658 11.04672 2.2797966 4287727222
-76.504456 11.08449 2.3747921 4288056186
-77.119217 11.463396 1.7993927 4287726967
-81.532204 12.285423 -0.43070602 4285293404
-84.863396 -5.7376862 2.1259766 4279769110
-81.854996 -5.7033 2.9867611 4280361999
-81.951195 -5.1895804 3.2682629 4281150243
-81.66227 -9.5192518 -1.9479675 4280230682
-82.424599 -9.1932182 -1.7853432 4279771428
-76.725319 12.773576 -0.10670662 4286873975
-76.663857 12.996076 -0.54077721 4286546301
-77.219429 12.807194 -0.30066872 4286611826
-81.473068 -9.4673386 -1.4160938 4280428570
-81.132469 -9.4722843 -0.98590088 4280166178
-75.973488 12.171053 0.97477531 4287201908
-76.096649 12.47093 0.5176239 4287334524
-76.817337 12.258987 0.70572281 4287202675
-75.085587 14.127543 -5.1028271 4284702547
-75.21389 14.095585 -5.5523014 4284439636
-75.665276 14.009904 -5.1714973 4283914577
-78.153809 13.531537 -6.2323532 4283386696
-79.714012 13.172504 -6.7497101 4283256654
-78.592644 13.349407 -6.919549 4282993227
-77.798805 13.562086 -6.7287703 4283190082
-79.347206 10.710155 2.4019814 4286609510
-79.827522 10.525664 2.4665756 4286018151
-79.341164 10.337227 2.7364902 4286609508
-81.780609 -9.5684366 -2.9501667 4280955186
-81.902649 -9.4956455 -2.493103 4280689441
-80.004074 4.1199403 4.8584862 4284043063
-81.142395 -9.0360432 -0.051818848 4279769114
-81.470436 -8.7416992 0.19200325 4279767823
-82.610947 1.178421 4.4497795 4289570954
-83.078857 -4.8831654 3.1074104 4281412124
-82.46476 -6.2449503 2.4958477 4279506713
-82.325714 -6.5769615 2.3073101 4279440914
-82.081787 -6.4354854 2.450798 4279506193
-81.70607 4.6902785 4.4659023 4284043855
-78.695259 -5.5344863 3.7420616 4279705624
-79.204063 -5.2525997 3.7827187 4279770648
-79.230125 -5.6610293 3.5927029 4279966483
-80.814606 -8.2328167 1.4817276 4279768598
-80.334152 -8.4686604 1.5491123 4279506190
-80.6222 -8.2465324 1.6037636 4279703057
-85.764755 -4.0215063 2.7656498 4282726682
-82.403442 -3.5345755 3.7936573 4289958255
-81.374878 -6.1632318 2.773838 4280294926
-81.193077 -5.534183 3.2503185 4280427030
-81.483429 -8.5113239 0.55221748 4279703314
-81.181656 -8.6847057 0.50353432 4279901460
-79.699585 11.092659 1.8975849 4286280551
-79.579788 12.017677 0.58437729 4286871410
-78.580116 12.577988 -0.25924301 4286609777
-78.243599 12.815371 -0.6598587 4286676594
-78.934502 12.687664 -0.57481766 4286215787
-81.323486 10.25753 2.1818218 4285689700
-80.785049 10.473585 2.1782684 4285623909
-82.252541 -7.6389961 1.1614037 4279768591
-82.494804 -7.7227869 0.89478493 4279703055
-79.926765 -8.8965111 1.2414227 4279506719
-80.250038 -8.8822699 0.96360588 4279770145
-79.857765 -9.0857258 0.95241356 4279969061
-78.855759 -8.7074051 1.92589 4279441424
-78.876007 -8.8393612 1.8102245 4279375372
-78.493324 -8.8193951 1.9400768 4279440908
-75.455292 13.570871 -1.5809994 4286478448
-76.297806 13.494723 -1.6354427 4286215536
-76.100311 13.396141 -1.2843094 4286151279
-79.675842 12.969973 -1.6957035 4285098851
-78.175499 13.568624 -3.1998158 4285097570
-78.350327 13.467989 -2.6290436 4285426535
-77.460327 13.655602 -7.081461 4282861123
-77.952896 13.505902 -7.2394571 4279308050
-76.78112 13.800852 -5.3048763 4284045395
-76.833511 13.755719 -5.9721928 4283780938
-77.819977 13.089652 -1.1264782 4286544763
-78.782547 12.880098 -0.97139168 4286281062
-79.619308 12.663727 -0.71468163 4286215267
-78.890144 12.111565 0.56058121 4287202426
-78.445473 13.356195 -7.3974562 4279308050
-79.227333 13.25259 -6.5959797 4283255625
-78.36953 13.284647 -1.9081192 4285493100
-79.249084 7.6475511 4.1687431 4287923314
-80.207787 7.2792249 4.1204224 4285556823
-82.049255 -2.5536304 4.0321655 4294637267
-82.088326 -2.0925608 4.1095238 4294638587
-80.294998 10.577871 2.2605591 4286476134
-80.083099 10.425938 2.4780998 4285952101
-82.856155 -7.1609607 1.5776176 4279572507
-81.595612 -9.6196241 -2.3708076 4280035879
-79.84343 10.085412 2.7814007 4285886049
-79.297272 9.9862165 2.9891987 4286214494
-79.697609 10.258612 2.7069931 4286084198
-81.508896 -7.2576356 1.9501057 4279638042
-82.587112 -7.4278584 1.2955208 4279834386
-81.549454 -7.8716111 1.3607941 4279833878
-81.54155 -8.0771294 1.0941448 4279703831
-81.136848 -8.1655378 1.3213081 4279899665
-78.969955 1.7982535 5.0558472 4288377903
-79.547554 1.7399516 5.000391 4283385395
-79.435066 1.1602845 4.952095 4283582250
-80.108345 4.8093481 4.7455597 4284305467
-80.450806 -10.010889 -1.5057392 4280688670
-80.100121 -10.340017 -1.869463 4279308050
-79.880684 -10.302329 -1.4753494 4280560179
-80.440315 7.7543449 3.9078426 4286085476
-76.855049 13.725533 -6.59799 4283518274
-77.288872 13.658769 -6.7139235 4283386694
-77.38382 13.651705 -6.3036232 4283322188
-76.451981 13.68981 -2.4725437 4286018663
-75.773544 13.824797 -2.8231163 4285623912
-76.250946 13.822961 -3.1178684 4285688418
-78.73645 13.382402 -6.4392033 4283125841
-79.961494 13.069782 -2.2731438 4285162589
-79.764229 13.050438 -2.0660057 4285163104
-79.501053 5.1587296 4.7680702 4286473040
-78.933708 5.5336056 4.7581081 4286148189
-79.546089 5.7636681 4.6391258 4285819978
-81.575958 5.0431314 4.4348335 4283387205
-77.899567 13.642186 -4.4525509 4284307288
-79.734634 9.7076216 3.0533314 4285884767
-78.510063 9.8213186 3.2798996 4286215520
-78.760307 9.5641346 3.3923206 4285690721
-80.845352 -8.5169373 1.0746346 4280032021
-80.673508 -8.4365311 1.3297863 4279572243
-81.083923 -8.3212795 1.1646461 4279637270
-81.101471 -9.2829666 -0.5087204 4280165670
-80.112373 5.9808493 4.5025597 4284635457
-78.068619 -1.0271206 4.7963238 4288519088
-78.469963 -1.4691 4.6877918 4285227055
-77.791161 -1.7491488 4.710371 4286870882
-74.801796 13.72274 -1.8444424 4286413432
-75.811356 13.645082 -1.9716473 4286282093
-82.082962 -9.5243397 -3.2519054 4281154107
-77.992645 13.489944 -7.2523422 4279308050
-77.977837 13.52046 -7.770462 4278190080
-78.297462 13.372932 -7.874753 4279308050
-79.903145 10.343922 2.5833931 4285558629
-80.690308 8.5871296 3.4614429 4288317560
-79.883865 10.247141 2.659317 4285558629
-80.055977 10.25491 2.6062183 4285493348
-77.76606 6.9122305 4.6028481 4285293400
-78.361954 6.540307 4.604063 4286738267
-77.641457 6.1479273 4.7613297 4285228634
-80.409378 -0.41570091 4.6156654 4291750136
-81.751007 2.1373715 4.6767387 4287134807
-80.411896 0.10242176 4.6959038 4290565880
-79.720833 0.35775375 4.8248806 4285642661
-80.415359 0.87083101 4.7951126 4292594113
-80.091698 1.519587 4.9182301 4285033039
-81.620285 4.2455006 4.550251 4284573795
-82.249718 -1.3505106 4.2007408 4292856249
-82.049347 3.3151913 4.5731277 4287006080
-81.607895 -2.8229899 4.0443382 4286614659
-81.59391 -2.3366718 4.1285801 4290896809
-81.013283 -8.8873959 0.29723358 4279835409
-80.624832 -9.0165977 0.39219284 4280034844
-80.83551 -8.7907448 0.60715675 4280295704
-81.38398 -6.6641288 2.4287071 4279899660
-81.227226 4.7756524 4.5440865 4284634439
-78.852936 0.41869354 4.9285431 4284109125
-73.858597 12.2678 1.0683422 4286940284
-73.196129 12.093815 1.3514652 4287531395
-72.968575 12.559155 0.66316223 4287859076
-78.364052 10.05982 3.1240463 4287002221
-77.842781 9.786232 3.4227448 4287069548
-77.773743 10.02266 3.2429543 4287004272
-78.855469 -10.355263 -0.5516777 4280494111
-78.875732 -10.44943 -0.79172707 4280099364
-78.543335 -10.535263 -0.67071915 4280229911
-81.302109 -9.733675 -2.0638123 4279967009
-81.347977 -9.7556028 -2.2987843 4279967009
-80.997566 -9.9653969 -2.3126945 4280756775
-80.461014 -8.927248 0.67659187 4280231714
-80.646957 -8.7146311 0.90924644 4280294937
-79.724907 7.9414153 3.9686413 4288648057
-78.914162 8.199522 4.0510044 4287069044
-79.38195 8.4844427 3.8216572 4288778875
-79.087288 9.2634459 3.500391 4285953127
-78.090271 13.447048 -2.3186703 4285493358
-80.277954 -10.267614 -1.9849205 4280562482
-79.965408 -10.430371 -1.8937073 4279308050
-73.066132 14.415792 -4.3931732 4284768612
-72.384537 14.556419 -4.5120735 4285293917
-72.485596 14.587799 -4.7204132 4285293917
-75.347458 10.862967 2.9144001 4287267196
-75.947678 10.808289 2.8310852 4287332470
-75.33448 10.634911 3.1723194 4287399292
-79.947159 11.711966 0.9940033 4286346858
-76.510132 8.5306225 4.514801 4286019173
-76.177376 8.5909767 4.5468006 4286347108
-76.710228 8.7684231 4.3563251 4286741357
-79.312965 8.9121466 3.6380672 4287532677
-78.429123 1.2395968 5.0573292 4286347113
-78.063248 0.4281559 4.9956627 4287792527
-74.592552 13.994468 -3.1213627 4285821035
-74.124466 14.113655 -3.5796318 4285819245
-74.818352 14.03898 -3.5355377 4285426022
-76.980385 13.65612 -6.9326096 4283255360
-77.601265 13.691566 -3.8659897 4285031007
-77.047966 13.784651 -4.5082474 4284308054
-77.42392 12.936588 -0.65285873 4286611565
-81.355148 -0.84533882 4.4015923 4289179301
-81.086685 0.40469074 4.6334381 4292077815
-81.882622 0.7495842 4.5348625 4288713359
-77.396484 9.8367634 3.4581852 4287464049
-81.69899 -9.5839291 -2.8101826 4280955186
-80.928688 -9.8609047 -1.8162842 4280558623
-81.267693 -9.658061 -1.7047749 4279837475
-80.563019 -10.129685 -2.0370598 4281018918
-80.766594 -10.159407 -2.5831013 4281609271
-80.914436 5.1416373 4.5386658 4283977540
-77.853477 12.699434 -0.29153824 4286480757
-80.67952 -7.6578584 1.9209194 4279899918
-80.634018 -7.2653227 2.1792622 4280097039
-80.989937 -7.5580788 1.8700371 4280358416
-81.485321 -7.001368 2.1654453 4279768849
-81.191704 -6.8744183 2.313345 4279505937
-80.924843 -6.947063 2.3097286 4279703820
-80.987167 -6.5559635 2.5764923 4279834644
-82.083748 -6.8017864 2.196394 4279309330
-81.293701 -1.7476082 4.2737598 4288583586
-80.282799 -1.8807797 4.3940182 4281283880
-81.197601 -7.9889164 1.4762783 4280094991
-78.656563 8.5342865 3.9750137 4286414452
-78.769958 8.7317371 3.8629856 4287337096
-77.680397 3.3822069 5.155117 4286211148
-78.073944 3.0038748 5.1455154 4285886562
-80.264023 -9.7922344 -0.73826599 4280362788
-79.991478 -9.8294029 -0.50840759 4280100386
-80.433258 -9.58391 -0.45869827 4280034590
-81.218483 -9.957675 -2.7894993 4281742399
-80.716469 -5.1322308 3.5798283 4280294419
-81.483025 -4.8337169 3.5411701 4282988332
-76.979279 13.712779 -2.9390564 4285821030
-77.383293 13.572452 -2.3883533 4286150253
-78.092598 11.365553 1.787426 4287923064
-79.803078 -5.7146854 3.4550552 4279640603
-80.429985 -5.6656365 3.3566475 4280164375
-80.923195 -0.27802277 4.5554333 4289317281
-78.527611 3.4081457 5.0818596 4284306505
-78.742432 2.8828225 5.0910969 4284108611
-77.330025 -1.2023506 4.8306313 4285753695
-77.756157 -0.3972683 4.9153042 4287871668
-81.674911 -3.4035158 3.9298649 4287338352
-76.040527 -3.4074059 4.5770416 4284766016
-76.65728 -3.3613291 4.5131016 4284897086
-76.525612 -3.7931271 4.4864273 4283847472
-79.470146 3.3630459 4.9870338 4282729781
-78.92321 4.0196629 5.0015965 4284506195
-78.965431 6.1478348 4.6231365 4286149472
-80.466827 -3.3269677 4.1291103 4285157434
-81.010063 -3.1273241 4.0828686 4282992435
-79.122345 -7.1678944 2.7666721 4279836434
-79.916031 -7.1929474 2.4673004 4280163861
-79.39093 -7.5185742 2.4615898 4279836705
-77.245132 11.828241 1.2702961 4287530108
-79.356003 4.5761156 4.886898 4285752654
-78.954979 -9.5667458 0.82787895 4280100890
-79.299011 -9.4703207 0.71412086 4279836434
-79.130623 -9.6730099 0.50779152 4279902751
-80.979935 -9.6918955 -1.3862591 4280033310
-79.518913 -9.4161911 0.62685204 4279639057
-79.382919 -9.5416794 0.51798248 4279639057
-79.946365 -3.6728239 4.1317062 4284705361
-80.848495 -3.7884884 3.9840851 4284173626
-80.050987 -4.3478584 3.9708614 4282401063
-78.128471 -5.9502397 3.6727829 4279704342
-78.697159 -6.0920649 3.4914551 4279965992
-78.077927 -6.533946 3.4480076 4280823071
-79.686905 -10.582559 -1.9278946 4281348656
-76.819336 -7.5201263 3.3637314 4280032017
-76.701965 -8.1143723 3.0545464 4280424212
-75.832382 -8.0557566 3.3576908 4281414707
-79.138443 -8.6894779 1.8597984 4279637516
-78.910355 -8.5871353 2.0074539 4279441424
-75.62928 13.995359 -6.4598198 4283387724
-75.917213 13.932731 -6.8446207 4283320904
-76.074516 13.897755 -6.5489454 4283584845
-81.042122 2.8047695 4.7837811 4285484871
-81.458595 3.2485294 4.6806793 4283652416
-81.125122 1.997488 4.7821007 4285489242
-78.382759 12.269573 0.39872169 4287200374
-78.162086 12.461088 0.086273193 4287068788
-78.846016 12.355928 0.12190056 4286741366
-78.31469 11.00597 2.219244 4287267704
-77.402725 12.077028 0.87398148 4286940286
-76.629288 11.985708 1.1315651 4287201908
-80.381546 -10.281647 -2.2689419 4280824621
-80.82283 -10.159129 -2.6738663 4281609271
-79.441216 -9.1727943 1.1413841 4279900695
-79.336716 -9.3112459 0.95941162 4280163093
-79.161018 -9.3050842 1.108387 4280165144
-79.250671 -10.252262 -0.70204353 4280362027
-79.866348 -10.661317 -2.3634453 4279308050
-73.932526 14.271654 -4.2897587 4284506976
-74.429787 14.224051 -4.4666042 4284900192
-74.728516 14.108696 -3.9766197 4285162854
-75.880325 13.934083 -3.6380711 4285227355
-75.473549 13.958387 -3.4482269 4285097822
-72.269791 13.202684 -0.3022728 4287464828
-72.557671 12.928885 0.13309097 4287663492
-71.624283 13.127794 -0.13614464 4287662722
-76.182533 13.85985 -6.9294519 4283190607
-81.045547 -8.5824633 0.77979469 4279967002
-80.527847 -9.3758316 -0.11411095 4279705111
-79.954315 -9.7275925 -0.2523632 4280099616
-79.020905 -9.1650448 1.4186382 4279900441
-78.7323 -9.1667271 1.5395031 4279768598
-79.247002 -8.9544601 1.5758915 4279767827
-80.229408 2.2643089 4.9330654 4288312454
-80.742348 2.3429923 4.8500614 4286147422
-80.471359 1.9255905 4.8880386 4290160534
-76.958359 13.800322 -3.9037266 4284832861
-77.332367 13.718374 -3.3626118 4285492061
-77.740608 13.597264 -2.7916031 4285558892
-76.824799 13.762365 -7.404418 4282793537
-80.321457 8.2484026 3.7210789 4288777340
-81.273598 6.7161903 4.1158504 4283979598
-74.725151 9.4355412 4.3458138 4287727227
-75.115753 9.665513 4.0861092 4287727997
-75.511871 9.4108229 4.1952591 4287661941
-78.905754 10.113935 2.9893875 4286346336
-81.295113 -8.3781948 0.90860367 4279835159
-79.767517 -7.9671612 2.0986137 4279899922
-80.125076 -7.8919625 2.0217972 4280030222
