# .PCD v0.7 - Point Cloud Data file format
VERSION 0.7
FIELDS x y z rgba
SIZE 4 4 4 4
TYPE F F F U
COUNT 1 1 1 1
WIDTH 1139
HEIGHT 1
VIEWPOINT 0 0 0 1 0 0 0
POINTS 1139
DATA ascii
35.458767 10.099853 -1.7380981 4279637777
35.674122 10.530736 -1.4124269 4279308304
34.395061 11.304643 -0.79011536 4280095245
34.499191 11.409234 -0.63225937 4279570702
34.649265 11.345907 -0.68483353 4279636236
35.877895 -8.8661833 1.9229813 4281874745
36.345638 -9.0217876 2.0513954 4281741865
36.281075 -9.1386681 2.2189465 4281148457
36.160957 -6.7030039 0.77045918 4281476368
34.73814 -9.2397156 2.2539673 4280623649
35.265961 -9.6109104 2.3190012 4279768853
35.599518 -8.9916086 2.0117311 4281545772
36.057541 -8.7739344 1.6894999 4282072375
36.037117 -8.8326941 1.827466 4282072634
33.751156 -8.4252853 2.137949 4282333744
34.276672 -8.4195442 1.6759987 4282399282
34.689938 -7.9109321 0.76355648 4281807397
34.777397 -7.7050381 0.69678402 4281872673
34.933697 -7.9480476 0.77371788 4281807658
34.488522 -7.4550099 0.59812832 4281805852
34.822536 -7.3126502 0.58502483 4281674265
35.343063 -9.6855717 3.5643559 4278190080
36.559414 -6.4641814 0.82322979 4281083667
36.177807 -6.4542418 0.7433815 4281148689
36.598358 -6.2149315 0.79960728 4281148432
34.821568 -9.8132591 3.4145794 4279308815
36.296497 -3.5408278 -2.2016964 4284107577
35.820465 -3.685956 -2.2064362 4286473810
36.966217 -3.7986219 -1.7599564 4283646248
37.4403 -3.9656682 -1.4114561 4283976507
35.785175 -4.5491133 -1.3724031 4282595886
35.923172 -9.8222008 2.7185287 4279047185
35.978817 -9.9666767 2.9029856 4279636753
34.484196 -8.2345009 0.99394226 4282070827
34.771702 -8.3822384 1.1156788 4282267692
34.581234 -8.3516092 1.1418371 4282267692
36.111897 10.020885 -1.7909651 4279766036
38.37125 7.569314 -2.5355549 4280163857
39.239361 7.5475731 -2.4089661 4281148444
38.893967 6.9657888 -2.6065092 4280819997
34.873138 11.677661 -0.22688293 4279439884
34.652424 11.457843 -0.54824924 4279636236
35.666714 4.3043647 -3.4768858 4280296731
35.021702 4.1290698 -3.5833254 4280887570
35.636784 1.7410972 -3.7592778 4282068513
34.380825 11.462928 -0.57833099 4279570702
36.82254 -5.1291332 0.086229324 4281740840
37.034836 -5.2168789 0.33185863 4281805863
36.689472 -5.2808647 0.20485497 4281674787
35.327694 -6.491466 0.51095581 4281280287
38.028 -5.0040097 0.60881424 4281674528
37.871609 -4.9292345 0.44136047 4282135077
38.180317 -4.87255 0.48585415 4281807402
36.684265 10.851378 -1.2871017 4279440915
36.469601 10.959243 -1.1758137 4279309585
36.41658 10.626613 -1.4246998 4278981651
36.820656 10.681594 -1.4102716 4279637266
36.515434 -9.2427101 2.269516 4281150502
36.296337 -9.3158426 2.3769808 4280753436
35.066906 -9.3668842 2.1397552 4280425497
38.480095 6.2920227 -2.8164139 4280228624
38.427658 5.4457459 -2.9679852 4280294671
37.665531 6.0991817 -2.9938622 4280359952
35.617435 -10.012705 2.9900513 4279308557
35.890392 -9.9890537 3.1225014 4280095251
35.889191 -9.6849375 3.6331844 4278190080
35.614487 -9.6707315 3.5927534 4278190080
35.747417 -9.7915239 3.455862 4278190080
35.629524 11.67189 -0.25576591 4279505935
38.712769 -10.183956 2.5390759 4279571473
38.477402 -10.178881 2.6237926 4279703314
38.491879 -10.074615 2.4311457 4279637521
35.601303 -9.8537407 3.3286972 4278190080
36.16608 -10.008578 3.099925 4279898900
36.385933 -9.9679956 2.9634838 4279636755
36.388618 -10.014802 3.2404108 4279899672
34.568897 -9.6235523 2.8359671 4279309586
34.576752 -9.7001123 2.9980679 4279309586
35.754578 -8.2540884 0.86642838 4282595888
35.849045 -8.1561413 0.82790661 4282529835
36.197674 -8.2994146 0.87721062 4282333488
34.216236 -7.2659321 0.48902702 4281805599
34.49017 -7.0861783 0.44959641 4281542939
36.030098 -2.1630943 -3.0902734 4282464299
34.946152 8.0045118 -2.8452144 4279834390
37.471127 8.8811131 -2.2383337 4279573007
37.009426 8.332408 -2.5071545 4280294412
35.96513 6.532083 -3.1555657 4280556818
35.584995 -5.7665339 0.15548229 4282134827
35.811104 -5.8888311 0.34709358 4282135083
35.342583 -5.9359951 0.19452095 4281806891
33.272255 -8.9611578 2.3787842 4281609513
37.046513 -9.4815435 2.2377176 4280950817
36.906006 -9.4755049 2.3238754 4280950817
36.97345 -9.3950005 2.2007074 4280950817
34.686359 -9.0629959 2.2128344 4281150765
34.616264 -9.1841946 2.3298922 4280491295
33.346741 -8.2182617 1.5427923 4281939235
36.173664 11.004366 -1.0858908 4279768849
35.807388 11.062473 -0.95374489 4279834387
36.126877 11.214813 -0.84729481 4279506193
37.274899 11.048453 -1.1548128 4279768339
37.574165 11.095344 -1.1064329 4279637011
37.674816 10.996816 -1.2139559 4279834643
34.577602 11.199118 -0.87037659 4280029452
34.036423 -1.5265141 -3.6609936 4282857773
35.175636 12.017887 0.67910004 4279439376
34.914738 11.92364 0.42269897 4279308558
37.092045 12.154276 2.0911198 4278190080
37.317101 12.108002 1.8763809 4278190080
37.128696 12.118033 1.77736 4278190080
35.594479 -7.9222217 0.77239799 4282135846
35.601574 -8.0401402 0.80152607 4282135846
35.477795 -8.4849663 1.1322927 4282203181
35.285999 -8.3787775 0.98383045 4282138153
35.637333 -8.434207 1.0035553 4282662454
37.404736 10.214043 -1.6599646 4279571726
34.904339 11.596765 -0.35603333 4279439884
34.793022 11.515756 -0.47158241 4279636236
34.515976 -7.9312797 0.77842617 4281807397
34.486763 -7.7567425 0.70928097 4281806617
34.718914 -8.4962683 1.5529642 4282005294
34.508465 -8.4699392 1.6489964 4282267952
37.253586 11.620295 -0.32422829 4279505167
37.18005 11.726283 -0.131217 4279374350
37.507023 11.694106 -0.18999863 4279505167
36.555199 -3.0796103 -2.4714136 4283188020
34.669476 -6.1134477 0.065601349 4281347618
36.021439 -7.2772083 0.75959969 4282002202
35.899712 -7.4198151 0.74750614 4282002202
35.837631 -7.2103901 0.73836327 4281870879
38.179913 1.5503433 -3.4333663 4281674784
37.386349 1.3732855 -3.5451584 4281938201
36.821228 2.5128901 -3.5391703 4281279759
36.250492 1.0188103 -3.7013512 4282068769
37.108326 -5.6493173 0.78845882 4281279772
37.501194 -5.4048557 0.78988647 4281607193
37.64267 -5.6079974 0.98382282 4281608992
37.994301 -4.7044468 0.11962318 4282004264
37.8195 -4.8436966 0.27143669 4282135845
37.685577 -4.7611332 0.075099945 4282135845
36.844791 -5.6060543 0.61562347 4281411357
36.725666 -5.5937209 0.53654575 4281411615
36.813549 -5.541954 0.54623413 4281411357
34.748199 -5.9970713 0.0094194412 4281741092
36.327244 9.6551104 -1.9852161 4279900437
35.917732 4.7043357 -3.4019337 4281083677
38.185501 -1.4949775 -3.0111809 4282135589
37.471859 -1.4027166 -3.1508083 4282332460
37.934467 -1.1586156 -3.1609631 4282595878
37.185562 -0.99774796 -3.3164425 4282136622
36.581375 -1.2944586 -3.3199449 4282530865
38.807064 -8.192626 0.79818439 4282267433
38.489075 -8.0437126 0.8123703 4282267179
38.843468 -8.0511503 0.80585861 4282136102
35.4687 11.182515 -0.80415058 4280030993
37.045109 10.852901 -1.3069477 4279637266
37.315407 10.940157 -1.2529402 4279637011
37.292191 10.833872 -1.3204947 4279701778
37.679802 0.76652849 -3.5115604 4281740059
35.243797 -3.7021911 -2.337945 4284173377
34.594109 11.605187 -0.34260464 4279374094
34.32209 11.602965 -0.34033489 4279570960
34.559975 11.675287 -0.222085 4279374094
39.31493 11.696757 -0.11098576 4279243277
39.406105 11.645564 -0.25121784 4279439373
39.073689 11.663456 -0.24208355 4279439628
35.794956 11.303952 -0.70771694 4280030739
35.510639 11.402219 -0.58400154 4279703056
37.948414 11.055011 -1.1479177 4280031251
37.879463 11.143893 -1.0390711 4279899667
38.15876 11.112557 -1.0828047 4279637266
34.999699 -9.9651375 3.0239286 4279375120
35.303055 -10.006614 2.8576336 4279243281
37.797596 -8.9194298 1.3292685 4282529834
37.596123 -9.0420609 1.5617895 4282399280
37.391655 -8.8694515 1.3694258 4282268205
35.686535 -8.6180325 1.4356337 4282398774
33.787994 -8.2896671 1.4827719 4282464809
36.17794 -8.1722126 0.84077454 4282464306
35.845234 -8.0672989 0.81081676 4282397739
35.298992 -7.3216138 0.66628456 4281477656
35.181828 -7.6899147 0.71458149 4281938463
39.000206 -6.7805939 1.0978384 4282001434
39.31966 -6.571135 1.167696 4281740316
35.116703 -8.4565992 1.1496067 4281809191
35.39975 -8.5500097 1.3206329 4282267951
35.954685 -9.6504974 2.6093273 4279112977
35.913757 -9.7277031 2.6500988 4279047185
35.850891 -9.6639071 2.5802612 4279112977
36.056744 -7.6382527 0.75890064 4282396178
38.091133 -7.3538661 0.9414835 4281808162
38.359211 -7.5353236 0.90388775 4282005026
38.063652 -7.6610904 0.87176132 4282135589
36.991951 10.970504 -1.2161589 4279965204
37.478668 11.516899 -0.50240421 4279570706
37.1912 11.503229 -0.51527691 4279636242
37.462196 -10.066227 2.7570133 4279768850
37.326878 -9.9856443 2.6560345 4279571215
37.61319 -10.020631 2.5682764 4279571471
37.009129 10.587692 -1.4723864 4279570704
36.685112 12.062164 0.8070488 4279244051
36.096935 -9.4590864 2.4843245 4279964700
36.043079 -9.6013756 2.5875053 4279637520
36.92585 -10.053375 3.0839148 4279571991
36.649242 -10.03849 3.170351 4279768855
36.734718 -9.9697933 2.9056349 4279768855
37.85331 -0.78742397 -3.2728982 4282726181
36.849407 -10.119583 3.3771276 4279309590
36.17448 12.228316 1.6387644 4279243538
36.651756 12.160042 1.4933443 4278190080
34.905254 11.749229 -0.095956802 4279439884
35.38353 11.823462 0.019576073 4279505936
35.714523 11.581841 -0.38010693 4279964688
36.013882 11.61877 -0.33091831 4279702032
37.292294 7.1226387 -2.8385696 4280623124
37.021023 7.5585093 -2.7590275 4280294677
37.620354 7.5626144 -2.6547222 4281014544
35.188606 -5.8477736 0.067212105 4281609766
35.270992 -5.6960206 -0.045844078 4281348387
39.781448 -4.6603818 0.9279871 4281017628
40.262909 -4.6052608 1.0546846 4281476378
39.960106 -4.7545986 1.1006145 4281017628
38.551155 -5.7013149 1.2091408 4281280794
38.084137 -5.6825476 1.1240301 4281546021
38.502747 -5.5636292 1.1808853 4281280794
35.018517 -6.0712256 0.17226601 4281609254
35.096287 -8.2192907 0.87216663 4281743658
34.861549 -8.2839689 0.96281147 4281940521
35.613251 3.7558661 -3.5488372 4281017105
37.550625 4.644783 -3.2093506 4280952089
38.386765 4.6625786 -3.0866127 4280950298
38.412727 3.8111367 -3.1888695 4280952079
36.413254 -7.3099089 0.80661678 4281806622
36.170605 -7.3451934 0.77084923 4281936921
34.499821 -3.7025986 -2.5019722 4284174678
36.713661 9.2417717 -2.1664448 4280228118
38.257324 2.8046403 -3.3253651 4281151776
39.496128 3.2150462 -3.1120005 4281411346
39.354031 2.4119787 -3.2178326 4281673237
36.980225 6.6343436 -3.0022259 4279902745
37.124298 -6.8207631 0.93839264 4281936412
37.077862 -6.6198077 0.94607162 4281871385
37.402397 -6.5915232 1.0091019 4281608474
35.684551 -7.7228112 0.74748135 4282332192
37.237793 12.15207 2.2871895 4278190080
37.238857 12.180326 2.6212645 4278190080
37.447914 12.182394 2.3863325 4279309074
37.54612 12.157909 1.9678192 4279243538
37.038441 12.203827 2.6827803 4278190080
34.901684 12.043091 1.0059319 4279309073
37.757206 11.518122 -0.51716137 4279440401
38.021606 11.462719 -0.60672188 4279637520
37.713387 11.403376 -0.68272018 4279440401
35.856281 -8.3982649 0.93096828 4282596668
35.48904 -8.3044596 0.89189243 4282530605
35.031273 -7.8592439 0.74554825 4281938466
35.25098 -8.1215467 0.82509899 4282070564
37.873211 -6.8773289 1.021595 4281347613
38.151321 -6.6480861 1.0923338 4281544224
38.221806 -6.9634924 1.0343704 4281674783
37.826836 -7.2041454 0.95957851 4281610011
37.532036 -7.1271439 0.95161533 4281806109
37.116959 12.205473 2.9314518 4278190080
37.764412 12.35069 2.6818209 4279308816
37.805569 12.424748 2.8412428 4279374610
37.869453 12.386018 2.6138372 4279308816
36.175442 -8.9124641 1.9379263 4281874739
38.13726 -9.9901094 2.3993835 4279440144
37.917671 -10.060597 2.538353 4279703568
37.83683 -9.9074697 2.3400564 4279505936
36.555332 -8.4402113 0.95504379 4282135595
37.373714 12.089655 1.0599403 4278190080
37.337803 12.093348 1.3447294 4278190080
36.904709 11.558141 -0.42920399 4278981136
36.402802 -8.6864004 1.3828573 4282267959
36.714352 -8.6828785 1.2731934 4282136633
36.686855 -8.5933609 1.1477709 4282201391
36.385654 -8.5824547 1.1897306 4282463538
36.469231 -8.5130777 1.0518808 4282397998
36.143166 -8.4762459 1.0468063 4282530612
36.17255 -8.4050198 0.93652248 4282333488
37.601021 -9.2336798 1.7875366 4282134317
37.759418 -9.3190928 1.8289604 4282202152
37.606884 -9.3735113 1.9136782 4281806369
37.370384 -6.2595382 1.0218315 4281214743
37.792625 -6.2095447 1.0940943 4281280279
37.397396 -6.4203043 1.0168047 4281411609
36.043053 -9.7056618 2.6597853 4279177745
36.118683 -9.9637098 3.27948 4279898900
36.381725 -10.004329 3.48382 4279505431
37.735222 -10.126447 2.7282991 4279768596
37.088047 -10.153736 3.3044195 4279440664
37.209866 -10.06462 2.921113 4279572502
37.450382 -10.129813 2.9558001 4279506450
35.498352 -9.600028 2.4233179 4279572501
36.54266 -9.8337126 2.7546434 4279570965
39.557888 11.792848 0.28783512 4279439373
39.749828 11.871688 0.7253561 4279308557
40.113232 11.776039 0.38684464 4279439374
41.69236 4.8241162 -2.5911617 4281411346
41.633041 4.2540231 -2.6804447 4281346322
41.030582 4.7296982 -2.6888132 4281082386
41.470448 5.4094305 -2.5297918 4281475602
36.749531 1.582599 -3.6141324 4282003992
36.940971 1.1027472 -3.6118574 4281937426
39.554352 -4.798461 0.98050213 4280754716
37.221958 -5.8273754 0.92590714 4281148443
36.266975 -5.8323698 0.49232769 4281411614
36.559143 -5.6675687 0.51157951 4281411615
36.447002 11.623425 -0.32130718 4279113232
36.706398 11.429996 -0.61828804 4278981136
36.273788 11.496599 -0.49742699 4279178512
37.646717 11.599548 -0.37341213 4279570706
34.912064 -5.8596344 -0.044055939 4281675812
37.677345 6.6501989 -2.8878479 4280950555
38.057121 7.0277076 -2.7359867 4281410330
36.8102 0.61804593 -3.6333108 4281937697
37.629002 1.9834902 -3.4754143 4281413407
40.097755 1.9716249 -3.1626158 4281805082
40.378391 2.5439606 -3.0700302 4281804555
40.901386 2.0887487 -3.048749 4281872145
37.661392 5.4176259 -3.1014457 4280753932
36.89257 5.0464106 -3.2567782 4281150492
36.182426 4.2223063 -3.4332733 4281018398
34.984383 -5.4561453 -0.50225639 4281413403
35.95882 -5.2827849 -0.21591187 4281609241
35.331516 11.589792 -0.36459637 4279703568
37.58242 10.87827 -1.3006468 4279768082
37.865841 10.775367 -1.3604774 4279833618
37.37722 10.686697 -1.4083061 4279701778
35.651127 -4.3994536 -1.606142 4282727466
39.840363 0.1942929 -3.1467619 4282069282
38.79163 -0.075847149 -3.2642565 4282399024
37.609818 -8.7134418 1.0550251 4282267173
37.323635 -8.7455521 1.1801863 4282135844
37.204105 -8.6362333 1.0611506 4282135844
36.294147 -8.844595 1.7785597 4281875244
35.936905 -6.0263815 0.48764896 4281543969
36.262962 -7.7444482 0.78697109 4282332703
36.634136 -7.5974483 0.82484055 4281872418
38.999161 -8.1201344 0.80461979 4282267431
39.079514 -8.2402267 0.80016232 4282267431
36.415272 0.3202728 -3.671514 4282069287
37.977337 -9.028923 1.4397268 4282464047
37.906105 -9.1819935 1.6546717 4282661673
38.266026 -9.6434374 4.3495083 4278190080
38.196941 -9.5917473 4.493227 4278190080
38.192528 -9.594573 4.5790777 4278190080
37.62817 -9.7851963 4.1641684 4279439887
37.553463 -9.875699 3.9325895 4279439887
37.603649 -9.9469681 3.7965746 4279439887
38.389309 -10.271484 3.0809412 4279571216
38.464554 -10.284311 2.9213362 4279374351
38.687759 -10.313112 3.0320015 4279375119
37.469315 -9.9759912 3.7048588 4279571990
37.401215 -10.077437 3.4616032 4279571990
37.611649 -10.177677 3.2035942 4279440142
37.741806 -10.198158 3.1851416 4279374607
37.787903 -10.181068 3.2638016 4279374607
38.302769 -10.220602 3.3355474 4279571216
38.322605 -10.179585 3.4625006 4279505424
38.139168 -10.152614 3.4446621 4279505680
37.739399 -10.181244 2.910738 4279769110
37.984776 -10.18915 2.791482 4279769363
36.873108 -9.8105984 2.6372738 4279178001
36.88335 -9.6247864 2.4598875 4279899664
37.087212 -9.6972647 2.4120951 4279439888
37.743286 -9.4693718 1.952486 4281806369
37.520912 -9.5134602 2.0479155 4281542947
38.097923 -9.8471537 4.0942497 4279440146
38.204384 -9.7191401 4.2914352 4278190080
38.056995 -9.702631 4.6209698 4279440146
38.497662 -9.9527836 3.871438 4278190080
38.519302 -9.8285618 4.0326681 4278190080
38.336296 -9.8514004 4.0190125 4278190080
37.9044 -9.7166986 4.4706097 4279374608
37.831665 -9.891736 3.9509964 4279374607
38.24107 -9.5336447 4.4636145 4278190080
38.390659 -9.3725863 4.9284611 4278190080
38.298676 -9.4838171 4.809453 4278190080
38.207653 -9.5568495 5.0236502 4279505425
36.964424 -9.2932034 2.0999355 4281413936
36.763329 -9.3514137 2.2635469 4280623903
36.156586 -8.6056089 1.2959909 4282530360
36.050377 -8.5281801 1.1544752 4282530360
36.898121 -8.8843594 1.6009684 4281876283
37.193745 -9.299942 1.9961739 4281543985
38.237015 11.74898 0.026329994 4279505932
37.821053 11.8757 0.26301384 4279439888
38.285229 11.910087 0.502285 4279505932
38.244118 10.673421 -1.418931 4279636750
37.671108 10.531145 -1.4984713 4279637009
37.184383 9.7929583 -1.8691235 4280029966
36.612198 7.8801751 -2.7100792 4280556818
38.357864 11.003201 -1.2101021 4279244304
37.980057 10.924293 -1.2728558 4280031251
38.054142 11.010627 -1.209156 4279637266
37.329781 11.776722 -0.025180817 4279374350
37.344669 11.874713 0.18260098 4279309073
37.271397 11.950809 0.3781395 4279243537
37.530949 11.942414 0.37024498 4279374609
37.977139 12.270667 1.8317909 4279243537
37.770821 12.22541 1.9116926 4279177746
37.884342 12.292642 2.1014128 4279177746
36.855522 11.698009 -0.19421959 4279112206
38.411961 12.485941 2.433032 4279440143
38.583618 12.425754 2.4154224 4279374097
38.516514 12.39289 2.2711382 4279243281
38.475586 12.611332 2.9598408 4278190080
38.737011 12.571885 3.0593128 4278190080
38.719845 12.497636 2.7764816 4278190080
38.337254 12.395439 2.2014513 4279243281
38.54491 12.512968 2.6201029 4279243281
37.785706 12.293034 2.3537607 4279243538
37.678207 12.227461 2.1830282 4279243538
35.787952 11.9125 0.19932652 4279177747
39.107666 4.0189533 -3.05902 4281083679
39.059425 12.204048 2.4733572 4278190080
39.074081 12.274799 2.7151718 4279178000
39.399719 12.2003 2.9868536 4278190080
37.816051 12.66775 3.458869 4279374869
37.881405 12.738482 3.6951427 4279374869
38.044804 12.673632 3.3857975 4279374609
36.273956 -6.2060108 0.70170212 4281279766
36.33625 -5.9914775 0.62111568 4281279766
37.057747 -8.8435745 1.473073 4281941042
36.147278 -7.885396 0.79386139 4282267183
37.527 -7.4737267 0.88875103 4281938726
37.156853 -7.4478483 0.87757206 4281938214
36.741558 -5.4706879 0.44705772 4281543198
38.724434 12.406612 2.5303335 4279374097
39.004509 12.47697 3.2143593 4278190080
38.901489 12.461372 2.9220552 4278190080
38.182907 12.714466 3.8542528 4278190080
38.117023 12.703514 3.6129236 4278190080
37.944096 12.768537 3.9252777 4278190080
40.190121 0.65782946 -3.1613369 4281871132
38.607933 11.11604 -1.0887508 4279179278
38.809368 11.030107 -1.1767178 4279112718
38.360325 10.885619 -1.295352 4279439887
38.854858 10.807716 -1.3190813 4279309583
36.318684 -5.3634415 0.098077774 4281740579
36.613346 -5.4037242 0.30289745 4281477922
37.340347 -4.7879143 -0.086779594 4282201128
36.382816 4.9047775 -3.3353624 4281083676
37.041962 -7.9138026 0.83890629 4281939491
38.082455 12.558162 2.847043 4279308816
38.192467 12.627221 3.0587587 4279374354
38.315132 12.56953 2.7196236 4279111956
39.335831 12.104795 2.4575176 4278190080
39.663513 12.06682 2.5674582 4278190080
39.410362 12.023861 1.967206 4278190080
38.57148 -6.6514063 1.1277971 4281609240
38.322472 -5.3943381 1.0653715 4281478682
38.524166 -5.4362626 1.1418877 4281347354
38.136654 -5.4950776 1.0804586 4281741345
39.316685 -9.1945152 1.2399302 4282005552
39.627228 -9.2899466 1.2655525 4282005301
39.414955 -9.4511051 1.3996172 4282071350
37.700649 -8.8122797 1.1822176 4282397992
38.602352 -9.1100397 1.3643856 4282401335
38.923355 -9.0967131 1.250865 4282138933
38.763474 -9.2690172 1.4850702 4282401341
36.514961 -9.4014597 2.4098597 4280686874
36.650536 -9.0544548 1.9891205 4281808688
36.738697 -9.1939707 2.1102066 4281148971
36.506725 -9.1236439 2.1355228 4281150502
38.222176 -9.5532379 4.4713211 4278190080
37.893951 -10.208176 3.1693392 4279374607
37.940193 -10.227805 3.0511379 4279374607
38.119545 -10.240312 3.1216669 4279505680
37.618439 -10.134659 3.3555832 4279439887
37.323402 -10.158813 3.2196732 4279506450
39.154026 -2.3352752 -2.4870024 4283189559
38.853767 -2.1111567 -2.6534529 4282203183
39.386967 -2.014194 -2.6310253 4282005033
37.557911 -4.9457345 0.27911949 4282331942
37.722801 -5.0625248 0.54229164 4281806106
37.386555 -5.1339765 0.44465828 4281805864
37.829418 -6.4003587 1.0885553 4281608987
37.667305 -6.5756826 1.0500145 4281608987
37.03619 -6.2205567 0.92440796 4281149458
36.898987 -6.3746262 0.89718151 4281542935
36.853504 -6.2261357 0.87759304 4281148432
38.023296 -9.7127142 4.9799585 4279440146
38.110409 -9.6587553 5.2529135 4279702030
37.908527 -9.8322344 5.1215448 4279571220
37.842743 -9.8531523 4.8810549 4279440146
37.414749 3.5881267 -3.3476257 4281214747
38.068352 12.192719 1.4938326 4279308559
38.263542 12.299623 1.9068584 4279308817
37.355152 12.221157 2.8545294 4278190080
38.816246 11.933318 0.72132874 4279374093
38.786747 11.811731 0.23601818 4279505420
38.174168 12.477563 2.4776068 4279177745
38.095005 12.367461 2.133337 4279243537
38.005489 10.398322 -1.561348 4279702288
37.126263 10.747413 -1.3761292 4279637009
39.229149 -1.2789791 -2.9399633 4282070049
39.214798 -1.5242531 -2.8718987 4281611043
38.813019 -1.3372872 -2.9923954 4282595105
37.36779 12.034497 0.64555454 4279374353
37.302399 12.094372 1.5980082 4278190080
35.990158 -7.9966011 0.80078983 4282594349
36.043903 -8.6718159 1.4743776 4282334265
38.727238 11.688673 -0.14493656 4279439884
38.823666 11.597778 -0.39918137 4279505165
38.427036 11.62035 -0.32797241 4279767567
36.970875 12.160449 1.939497 4278190080
36.877819 12.212317 2.2066202 4278190080
39.057499 12.070481 1.8434553 4278190080
38.920513 12.148601 2.0695953 4278190080
38.94289 12.549081 3.4802504 4278190080
38.764206 12.612928 3.5418844 4278190080
38.863556 12.576365 3.6925468 4278190080
39.317333 11.945113 1.0456076 4278190080
39.240814 11.858914 0.50895691 4279243021
37.606503 12.255245 2.5191507 4279309074
37.567814 12.285336 2.7603941 4279309074
37.660389 12.310041 2.6867876 4279309074
37.757423 10.113437 -1.6998816 4279702542
37.906296 9.8971539 -1.7808628 4279964428
36.706131 11.002832 -1.1599035 4279703828
36.29644 8.2977991 -2.6043243 4280688666
36.067703 11.404665 -0.61351109 4279703059
36.402534 11.326313 -0.74445152 4279374604
36.506462 11.124813 -1.0019503 4279112720
36.797585 11.247768 -0.88396835 4279505684
36.900085 11.101406 -1.0826368 4279703828
37.186222 11.160261 -1.0100985 4279702036
37.105816 11.307108 -0.80794048 4279833620
37.58157 9.4752817 -1.9883928 4280359440
37.490795 -9.8749504 2.4048882 4279505682
39.371368 -10.497539 2.9155188 4279900694
39.295933 -10.464794 3.0734453 4279901210
39.227898 -10.445183 2.9564524 4279901210
38.422108 -8.9978733 1.2854013 4282269230
38.268639 -9.1040945 1.4697142 4282664506
38.206318 -8.9957952 1.3326225 4282399284
38.451492 -8.9266624 1.1751175 4282269230
38.635117 -8.9735479 1.1946697 4282071079
38.700089 -9.9701204 3.8824129 4278190080
38.592953 -10.075541 3.7150784 4278190080
38.846336 -10.122804 3.7230425 4278190080
38.2649 -9.571023 4.3751192 4278190080
37.457935 -6.7428246 0.99419785 4281608474
38.918346 -7.4795661 0.91114902 4282004776
38.728809 -7.2660866 0.96315384 4281872669
39.021706 -7.1810155 0.98914146 4281871133
38.475948 -8.2670746 0.78339195 4282267691
38.43346 -8.4573736 0.79245281 4282004523
38.131248 -8.2797279 0.78855038 4282331943
38.893127 -6.1161118 1.2526941 4281083418
39.360191 -6.0877156 1.3020887 4281083930
38.991184 -6.3695717 1.2121563 4282329625
38.367611 -9.6321831 1.9792433 4281020207
38.237194 -9.7432356 2.1039791 4279507993
38.171017 -9.593257 1.9855413 4280427043
38.853828 -10.145491 2.3856926 4279571473
39.899326 -10.521882 2.097497 4280032275
40.088333 -10.601656 2.2024193 4279770134
39.874569 -10.593431 2.3221283 4279769621
39.087154 -10.392468 3.238596 4279506451
39.118244 -10.406275 3.0720387 4279901210
39.00145 -10.253078 3.5904827 4278190080
39.119648 -10.212926 3.6968803 4278190080
37.161144 -9.5606365 2.2398491 4280423955
37.304852 -9.4814901 2.0926094 4281214498
37.345478 -9.687252 2.2661409 4280423955
37.742786 -10.203477 3.1221342 4279769110
37.527725 -10.176826 3.1038151 4279440142
37.782421 -10.212135 3.0155764 4279769110
38.325939 -10.013661 3.762785 4278190080
38.033424 -10.034326 3.6678886 4279505680
37.963398 12.604067 3.165019 4279374609
38.510124 12.62203 4.0322609 4278190080
38.755188 12.59685 3.9461927 4278190080
38.650326 12.629096 3.7450342 4278190080
38.283176 12.669385 3.3105602 4278190080
37.504471 12.116884 1.6056147 4279178002
37.644188 12.126612 1.3499193 4279243281
38.537422 -1.8287325 -2.8409681 4282267690
38.432884 -1.1000071 -3.1136169 4282988836
37.935398 -5.2372837 0.82700634 4281346076
37.90028 -5.3971825 0.95739365 4281609752
37.20816 7.9233065 -2.6186523 4280819218
38.283562 11.067842 -1.1500635 4279244304
38.426323 11.169091 -1.0357828 4279440656
37.498035 11.207809 -0.95525265 4279571220
37.806255 11.267154 -0.87925529 4279768339
37.204582 11.387453 -0.6989212 4279636242
37.032013 11.442994 -0.61745739 4279374098
38.878178 -1.1591156 -3.0286293 4282923555
39.114342 -1.0756693 -3.0160847 4282400040
43.485729 8.2727346 -1.7558689 4279769102
42.831287 7.8523245 -1.9116011 4279834636
42.829292 8.4378939 -1.7515678 4279571730
38.592323 -3.9451578 -1.0523005 4282595878
38.543652 -4.043273 -0.90193462 4282923819
38.253498 -4.0976405 -0.92096901 4283252784
37.82304 8.1642132 -2.4452267 4279835166
43.26894 3.4421692 -2.6020346 4280950545
44.027222 3.1700323 -2.5766678 4280425230
43.214005 2.7705989 -2.704915 4280426778
38.539032 -4.1304531 -0.74548912 4282465320
39.198528 -2.7441394 -2.2232571 4285230463
39.737923 -2.6654503 -2.1801567 4283453244
39.189087 -2.9153366 -2.1105642 4286478440
38.180355 9.3609657 -1.9788485 4280095757
37.345589 1.0408283 -3.555841 4281937435
40.090111 -10.535237 2.0381508 4280098071
39.993668 -10.430764 1.8595905 4280559392
40.224056 -10.483155 1.9279213 4280230426
39.497799 -10.173858 3.7630072 4278190080
39.45734 -10.327634 3.6102982 4278190080
39.681778 -10.334535 3.6239481 4278190080
39.954975 3.9043968 -2.9598427 4281412883
39.213459 4.6705804 -2.9599905 4280886551
38.555489 -0.55601799 -3.2210732 4282595357
38.687252 -0.91725445 -3.1155233 4283185960
38.885941 -4.2190671 -0.40562057 4282333221
39.52346 -4.198854 -0.1148138 4282202418
39.086212 -4.3976326 0.072821617 4282332457
37.715691 -6.6562309 1.0417061 4281543454
37.61681 -6.8309121 1.0041256 4281609242
37.867531 -6.6835337 1.059123 4281478175
38.856403 -5.935256 1.2590799 4280951585
38.640629 -5.8288941 1.2339916 4281082905
39.066467 -5.7906876 1.2851009 4280886298
37.149391 -5.020319 0.15202999 4282004270
36.971771 -6.0345364 0.87596416 4280885779
39.62381 -4.328238 0.24362755 4282070314
38.314281 -4.7161784 0.30337906 4281873452
38.020672 -4.8258371 0.34292793 4282135077
38.421925 -4.4955406 -0.06584549 4282266668
37.045902 -5.4739499 0.61399174 4281346078
38.206806 -5.0610204 0.74656296 4281212958
38.335373 -5.1678491 0.89409447 4281212958
38.049706 -3.7558374 -1.4862556 4283449650
38.63406 -3.6044307 -1.5374346 4283319095
38.635277 -3.7743032 -1.2913761 4282990640
39.377804 10.335699 -1.4963703 4279375376
39.171368 10.592859 -1.4007025 4278981906
39.734669 10.519917 -1.3729801 4279375383
39.632301 12.030265 2.1383905 4279374093
38.767601 12.604271 3.3205004 4278190080
38.580669 12.649864 3.5231743 4278190080
40.082436 12.011643 1.8709183 4279243021
40.443836 12.044083 2.2166576 4279243021
40.54303 11.940369 1.5731478 4279374094
38.775284 12.238841 2.2025175 4279178000
38.87495 12.293458 2.4819393 4279374095
37.806335 11.979519 0.54283619 4279374609
38.764854 12.116913 1.7111578 4278190080
38.513599 12.116817 1.380312 4278190080
38.540848 12.205026 1.8271675 4279309331
37.717815 12.114942 1.0854473 4279374353
37.402771 12.069698 0.82086658 4279374353
37.954609 11.641626 -0.26422024 4279505932
38.438679 12.029467 0.94850445 4279374349
38.843491 12.021525 1.1681833 4278190080
39.177319 12.435081 3.5316677 4278190080
39.041725 12.515184 3.6624203 4278190080
38.905575 12.373008 2.7074156 4279374097
38.061562 12.032248 0.78361893 4279178000
37.69445 12.058958 0.78194427 4279309074
38.191368 -10.261284 2.9848995 4279571216
37.688644 -9.6833944 2.1569557 4280491541
39.507645 -10.186298 1.8344584 4281083426
39.551384 -10.296902 1.9460659 4280229658
39.449402 -10.227121 1.951273 4280229658
37.033264 -9.5638981 2.3333206 4280163089
38.057728 -8.9404421 1.2907133 4282464047
37.702763 11.771605 -0.0062093735 4279439888
37.455353 11.995092 0.52648067 4279309073
39.113693 -9.8413925 4.0558157 4278190080
38.751919 -9.7904329 4.102951 4278190080
38.950378 -10.008252 3.8800554 4278190080
38.355019 -9.7379818 4.1716051 4278190080
38.454281 -9.660285 4.2491493 4278190080
39.69487 -10.215462 3.7251768 4278190080
39.878094 -10.343572 3.6150932 4278190080
38.267323 -8.924263 1.2228193 4282399284
38.886063 -9.7574472 1.8678265 4281017635
38.52293 -9.7655907 2.0468798 4280690468
38.580849 -9.5806293 1.8544464 4281412913
38.100357 -9.8632298 2.2420998 4279507993
38.363182 -9.9007044 2.246213 4279834388
38.744255 -10.308328 2.8452215 4279638292
39.233711 -10.101191 3.8193808 4278190080
38.282761 -10.241705 3.2068777 4279571216
38.231232 -10.24271 2.8443108 4279769360
37.976727 -10.22732 2.9342289 4279769363
38.495743 -9.3931198 1.7071562 4281940536
38.477558 -9.226716 1.5404825 4282269504
39.458656 -9.8586311 4.0531845 4278190080
39.2831 -9.551816 4.3768263 4278190080
42.029747 -6.0586567 1.4844904 4280886550
42.23774 -6.4380398 1.3674288 4281017879
41.71706 -6.4772034 1.3149366 4280952857
37.955994 -9.3580341 1.8226681 4281675552
37.413761 -8.5728893 0.95753574 4282070052
37.565842 -8.4686623 0.86861134 4282004261
37.120144 -9.4193115 2.1352282 4281214498
37.763153 -7.9080944 0.83075333 4282529322
37.850021 -8.0291872 0.81377888 4282529322
37.624653 -7.9698191 0.82741928 4282201128
38.120266 -5.8507853 1.1483107 4281345816
39.016056 -4.9495525 0.9117651 4281345304
38.767433 -4.9393463 0.82129288 4281409562
39.214554 -4.8109636 0.8682785 4280886039
36.844212 4.3167191 -3.3355923 4281084440
38.360909 -8.8005781 1.0138893 4282135337
38.521801 -8.8825159 1.0963364 4282135337
38.296791 -8.8629951 1.1133766 4282136368
39.139904 1.8112226 -3.2974529 4281608729
36.68988 -3.6218429 -2.0140944 4283516979
37.263699 -3.464962 -1.9992476 4283910956
36.141575 -3.7701027 -2.0482903 4283913813
39.802795 -9.9643946 3.9532671 4278190080
39.602821 -10.064627 3.8570127 4278190080
38.550007 9.7512693 -1.7933149 4279964429
38.48259 10.010369 -1.6892881 4279898892
38.978348 10.028289 -1.6480789 4279374607
38.030918 -2.5308256 -2.5453081 4283385392
37.120422 0.84494793 -3.5936303 4281675289
40.263588 11.565361 -0.22142887 4279439629
40.613171 11.47389 -0.27169704 4279308815
40.280491 11.447764 -0.42707443 4279309068
37.437374 11.331733 -0.78893471 4279702036
38.707664 11.39602 -0.7553091 4279505165
39.015659 11.354221 -0.80726147 4279178253
38.711708 11.260496 -0.93426704 4279309069
39.762314 1.47088 -3.2335348 4281806099
40.79364 1.5520556 -3.0940065 4281213975
40.213902 1.1482234 -3.1801414 4281477915
39.347794 11.440131 -0.65693474 4279243021
39.014042 11.503199 -0.58816338 4279177485
41.486275 8.8909369 -1.7125502 4279769357
40.874413 9.0643749 -1.7336493 4280163090
41.122131 9.3891163 -1.598485 4280163858
37.799541 -7.5312839 0.89156914 4282200357
37.903759 -8.3208189 0.80113602 4282266405
37.822968 -8.1509008 0.80141068 4282463271
40.061752 -5.5512509 1.4011564 4281016595
40.604874 -5.551445 1.4605055 4281148697
39.937546 -5.7544699 1.3846092 4280755473
38.981369 12.552086 3.8678246 4278190080
41.319271 2.5227001 -2.9454899 4281807135
41.657795 1.9215648 -2.9687653 4281543191
37.941486 -6.5301037 1.0854206 4281675035
38.054314 -7.9161711 0.8233099 4282397738
38.116882 -8.1282711 0.800951 4282331943
38.617386 -7.4414282 0.91907215 4281872669
38.683472 -7.6553445 0.87468338 4282070047
39.478329 -5.0926876 1.1882238 4281016850
39.849617 -4.9084983 1.1912241 4280623383
39.994911 -5.0390735 1.2934074 4280623383
38.476082 8.8179684 -2.140996 4279964943
38.889778 -4.0118403 -0.80394077 4282530073
38.234432 -4.2890854 -0.57185268 4281809452
39.866169 12.10666 3.3734474 4278190080
39.327858 -0.4790802 -3.1043177 4282531636
40.717827 0.19232237 -3.0248661 4281084445
39.941582 12.117441 3.6117678 4278190080
39.23317 12.448861 3.8075132 4278190080
40.929657 11.980956 2.131238 4279374094
43.2174 6.6114669 -2.1467266 4280687642
43.745506 7.3031187 -1.9746199 4280162583
44.015263 6.6970305 -2.0493479 4279506706
39.763016 -5.3183107 1.3387003 4281017103
39.939953 -5.3442788 1.3690844 4280885523
39.514473 -5.4223495 1.3213463 4281148436
38.653347 -5.1857276 1.0053587 4281476116
38.347668 -5.2987061 1.0069075 4281345559
38.517765 2.1216745 -3.3588433 4281740820
44.944145 1.6898584 -2.6118326 4281345042
44.085197 1.4116665 -2.7256613 4281280529
44.305141 2.0911362 -2.6653042 4281017367
39.146374 11.599981 -0.406991 4279177485
36.90202 11.944138 0.33797932 4279177745
40.613968 10.544011 -1.1802778 4279637524
40.809208 10.550253 -1.1269331 4279637524
40.749184 10.399477 -1.2421198 4279702806
39.774849 11.986836 1.728508 4279243021
39.807949 12.022718 2.030714 4279243021
38.519688 -10.221187 3.4246979 4279505679
38.809364 -10.295195 3.3497887 4279375119
38.739025 -10.208306 3.5540228 4278190080
35.9077 -6.9581561 0.74675751 4282001175
38.32225 -6.157917 1.1742392 4281346837
41.365471 -4.5628009 1.3223658 4280558619
41.091011 -4.6827726 1.35674 4280755479
40.987144 -4.5819364 1.2545519 4280755479
39.030403 -10.293021 2.5215216 4279703058
39.340576 -10.452885 2.6160841 4279703316
39.021622 -10.355777 2.7298117 4279704342
40.369457 -9.5609093 1.3064766 4281873456
40.704159 -9.6764603 1.2104101 4281217585
40.533356 -9.8202133 1.3087254 4281611312
36.975128 -8.6693611 1.1682539 4282005807
36.817474 -8.5593615 1.0612841 4282201391
39.133511 -8.9317436 1.0434713 4281874220
39.142963 -8.6562443 0.85850143 4281872934
39.649475 -8.8822832 0.98077297 4281807138
39.357887 -10.002259 3.9081783 4278190080
38.053566 -10.197764 3.2757378 4279505680
39.257462 -8.328639 0.80406666 4282135850
39.325592 -8.1968145 0.81305981 4282267433
39.672359 -10.549281 3.3403969 4278190080
39.586761 -10.59443 3.1714716 4279573272
39.82309 -10.709112 3.095993 4279704087
39.090889 -9.351018 1.4305019 4282466365
39.179695 -9.6174126 1.5940151 4281939250
37.983669 -9.7331638 2.130888 4279309331
39.585941 -8.2948837 0.812747 4282005290
39.435966 -8.4768448 0.81305218 4282070826
36.976437 -8.4959984 0.96321011 4282069802
37.637959 -8.3413143 0.82407475 4282004261
38.003307 -8.5083466 0.82806492 4282135589
41.439041 -4.9177117 1.5090151 4280755228
41.052006 -5.0834575 1.4883537 4280689685
41.076443 -4.955276 1.4588671 4280754969
40.752632 -2.9976053 -1.7044849 4283254067
40.720806 -3.0822804 -1.6343699 4283450930
40.443356 -3.0987811 -1.6817837 4283584832
38.06356 -3.5818141 -1.6848001 4283319620
38.108547 -3.4619346 -1.8148203 4283319620
38.430019 -3.4816446 -1.7255812 4283451219
38.227795 11.544689 -0.48976612 4279702799
42.248749 9.6567402 -1.4001923 4279375630
42.745228 10.008466 -1.2094307 4279703062
42.903709 9.6038532 -1.3822517 4279637006
40.586174 -7.1239657 1.0248327 4281412125
40.614693 -6.7009897 1.1577797 4281346581
41.121105 -6.7556462 1.1703691 4281346075
39.91087 11.944407 1.3311472 4279373837
40.316238 11.863522 0.92541218 4279439374
37.729019 12.308179 2.538825 4279243538
37.945602 12.377831 2.390377 4279177489
43.448616 9.5086594 -1.3783331 4279703054
43.066517 9.2859325 -1.4798174 4279374606
38.081764 12.107329 1.0759516 4279178000
38.733723 -9.580514 4.3324909 4278190080
37.621349 -5.2139354 0.66139603 4281543198
37.90461 -5.1187053 0.68955326 4281674528
38.818462 -4.8178058 0.71028423 4281607968
39.37273 -4.6579108 0.76264954 4281018910
41.000526 -10.538123 1.4337931 4280688408
37.987034 -2.9888 -2.2597742 4283320647
37.545353 -2.941479 -2.3659201 4284895562
37.870224 -2.791635 -2.4083586 4283648063
37.712143 -3.2203569 -2.1207724 4283648574
37.783741 -3.4603286 -1.8803787 4283647539
39.948277 -3.1392987 -1.7527819 4284501060
40.243999 -3.1948605 -1.610157 4283779401
39.837021 -3.2606354 -1.6332264 4284501060
42.622871 -3.8100512 0.47880268 4282859052
42.515045 -3.7314882 0.23242092 4282859316
42.870621 -3.690264 0.3265934 4282858801
37.157269 -3.1490698 -2.2878513 4283318870
36.75663 -3.3573365 -2.2162771 4283646506
39.36874 -3.0148721 -2.0009489 4286016857
39.842003 -2.8433409 -2.0397243 4283912004
39.797535 -3.0230019 -1.904644 4284237645
38.936558 -2.6449063 -2.3278131 4283323211
38.79166 -2.8769953 -2.2089214 4285094748
39.188648 -3.1312089 -1.9336634 4285359441
39.427994 -3.1711507 -1.8376513 4285027148
38.365055 -4.9179411 0.64178276 4281345829
37.669231 -5.8232269 1.0468578 4281280282
38.713097 -1.5537984 -2.9312477 4281873956
38.418282 -1.3153877 -3.048049 4282595622
37.351894 11.424443 -0.63306141 4279570706
38.143341 9.7027597 -1.8495731 4279964429
38.742115 8.1125622 -2.3216515 4279902479
39.209179 8.5544786 -2.1294384 4281014289
39.560112 8.0782223 -2.2201843 4281344024
38.091858 -3.9527905 -1.2086983 4283319089
38.740025 -3.3558965 -1.8138218 4283976015
38.906452 -3.4335012 -1.6808834 4284370505
38.697754 -5.0532303 0.90600014 4281409562
36.508965 -4.0184879 -1.7009916 4283122231
39.249283 -3.4772918 -1.5226173 4283581490
39.398586 -3.3466635 -1.6550856 4283911230
39.747849 -3.3814936 -1.5101471 4283711787
39.756504 -1.3650341 -2.8260288 4282070311
39.480217 -1.0671659 -2.9539003 4282660908
38.845413 -9.4945478 1.6577301 4282332726
39.472908 -2.5099227 -2.3307505 4283713851
40.683182 -7.7284994 0.86789989 4281610280
40.727161 -7.4722686 0.92630577 4281544232
40.925117 -7.613503 0.89690018 4281478951
40.753601 12.098646 2.8294859 4279243021
41.221256 12.040499 2.6862316 4278190080
40.953163 -7.8367109 0.86541843 4281676582
40.36142 -9.2291155 1.1958027 4281939250
40.187256 -9.06814 1.1001205 4281938989
40.437241 -9.0192432 1.0586758 4281807404
38.213543 -9.2682962 1.6699429 4282269760
39.341488 -10.064674 1.8660297 4280953377
39.088955 -9.9860144 1.9918823 4280819743
39.252869 -9.8753357 1.740736 4281675817
39.238335 -10.131052 2.0414085 4280032024
39.349949 -10.21096 2.03403 4280161817
39.250195 -10.212088 2.1499739 4280032024
38.512558 -4.9580159 0.74586296 4281345829
40.318302 -4.144505 0.20731544 4281940791
40.627228 -3.9730883 -0.053014755 4282268473
40.752254 -4.1084514 0.35074425 4281546804
39.023106 -5.5417376 1.2665663 4280820763
37.949261 -9.5456772 1.9780254 4280493847
39.477917 -10.527318 2.7895832 4279769617
39.681137 -10.634343 2.8081408 4279573267
39.513027 -10.559204 3.0022964 4279769617
38.554626 -10.276673 3.2394857 4279243280
37.834179 -7.7654696 0.84838581 4282397480
37.625233 -7.7471185 0.84989738 4282266151
37.28878 -8.2425442 0.84199715 4281676835
39.002853 -10.368541 2.9369011 4279506451
39.255386 -10.447186 2.8110476 4279900694
38.233082 -2.7839649 -2.3557119 4283779899
38.576698 -2.4903398 -2.4798193 4283123258
38.71209 -8.8932133 1.0684938 4282071079
38.53875 -8.7176237 0.90811253 4281938471
39.72279 -10.445483 3.4943104 4278190080
39.855278 -10.442542 3.5151901 4278190080
39.442085 -10.297859 2.0650215 4280161817
39.521004 -10.362809 2.1193628 4279899154
39.354874 -10.29831 2.1874638 4279833617
40.076393 -10.672489 3.2651243 4278190080
40.254494 -10.6498 3.3961353 4278190080
40.014885 -10.506058 3.4595776 4278190080
39.04615 -10.119677 2.1961136 4279833365
39.666119 -10.473469 2.219862 4279899154
39.622208 -10.534698 2.4496994 4279571985
39.381886 -10.385167 2.3444195 4279833617
38.743206 -10.262671 2.6731586 4279638292
45.135593 5.4295044 -2.0834055 4280557336
45.238892 6.0205092 -1.9888563 4279837972
45.833275 5.6680579 -1.9465733 4280689180
39.493706 9.9860811 -1.6078358 4280030992
39.689617 9.5562162 -1.7271624 4280162572
38.941803 9.5403795 -1.8360014 4279768335
39.649147 -6.1863089 1.2927494 4281346592
39.585663 -6.3923764 1.2361469 4281804313
39.409775 -6.2506533 1.2690172 4281413150
38.387939 -6.3791447 1.1622248 4281412119
38.232018 -5.9977875 1.1783638 4281149971
37.661541 -6.0322933 1.0675621 4281083672
39.060234 11.732066 -0.02274704 4279439628
39.198944 11.79065 0.18078327 4279308557
39.608265 11.996874 1.864706 4278190080
38.289444 10.235637 -1.6161251 4279637006
38.857025 12.060401 1.5079126 4278190080
39.164673 12.00133 1.4891586 4278190080
39.527802 11.979113 1.5443611 4278190080
38.074581 -3.3242698 -1.9634714 4283253844
37.593506 -3.6681633 -1.7071381 4283844149
38.188801 -3.1449668 -2.1101084 4284706142
38.453606 -3.2234368 -1.9977293 4284965739
39.426891 5.5292525 -2.7974377 4280755485
40.592365 -6.4933929 1.2414665 4281477914
40.299221 -6.5485888 1.2129469 4281609244
40.470375 -6.3707905 1.2799864 4281281820
40.372627 -4.6845026 1.1742048 4280885268
40.309376 -4.7894311 1.2455196 4280819990
40.250477 6.534833 -2.5043402 4281343503
39.811626 7.0164347 -2.4598732 4281280027
40.82151 7.0273557 -2.3179455 4281016337
40.407845 9.4468384 -1.6717291 4280293910
39.289539 9.0832167 -1.9379387 4280358925
40.504642 5.4094472 -2.665616 4281214230
40.147701 4.660274 -2.8238277 4280953115
39.448311 -5.7733812 1.3309126 4280886547
39.389908 -5.9253221 1.3205948 4280886547
41.107269 -7.3128214 0.99183369 4281216039
41.210045 -7.6504831 0.90453053 4281479467
40.649933 -5.8854284 1.4227676 4281017373
40.75597 -6.0168347 1.4006157 4280822300
40.464012 -6.1543908 1.3473015 4281083161
39.547459 11.066038 -1.0665503 4279767825
39.569752 10.915564 -1.1867962 4279506454
39.23698 10.973313 -1.1810341 4279440144
41.348503 11.596552 0.38971233 4279505165
41.258949 11.646587 0.63481236 4279439889
41.586014 11.604452 0.57687283 4279505165
41.658733 11.809448 1.9255066 4278190080
41.378593 11.883291 1.9973745 4278190080
41.634438 11.866273 2.2440538 4278190080
40.185299 8.6999273 -1.9359303 4280951842
39.939209 9.1271601 -1.8425436 4280294927
40.464897 8.9951019 -1.7977247 4280819212
38.107868 11.33746 -0.79154778 4279899667
38.155987 11.212876 -0.96436596 4279702802
40.94495 8.560813 -1.8804684 4279901196
40.094086 -10.290822 1.6049566 4280756517
39.756672 -10.26313 1.7306032 4281150500
39.956993 -10.010962 1.4871292 4281873456
42.208401 6.9715438 -2.1739502 4280295180
41.09111 6.2058764 -2.4474745 4280492303
38.661785 -6.9996901 1.0348053 4281805078
40.991035 -6.0962925 1.3856201 4280494102
40.686634 -6.2444806 1.3266792 4281150493
42.486374 3.1526594 -2.7391024 4281279505
42.336956 2.4402809 -2.8399982 4280886544
39.436214 -10.262314 2.0111542 4280161817
39.368469 -10.255806 2.0952358 4280161817
39.469692 6.3856583 -2.6436949 4280689433
38.861343 1.2922007 -3.3532333 4281608983
39.82114 -0.18216252 -3.086731 4282135596
39.99435 -10.924425 2.7867928 4279637269
39.865826 -10.800809 2.8378019 4279704087
40.062157 -10.779482 2.5947189 4279376402
40.199753 10.249707 -1.4126873 4279572498
39.802177 10.250852 -1.4761648 4279704082
39.969639 -7.8076205 0.83795547 4282266669
39.688183 -7.8196311 0.8440752 4282331947
40.699989 -8.9424562 0.98967075 4281873195
40.421345 -8.8765965 0.96705151 4281938731
42.183559 11.733495 1.5656548 4279505165
42.383362 11.766159 1.9310169 4279505165
42.387737 11.75219 1.6466236 4279570957
39.292114 11.302132 -0.85881901 4279308557
39.581379 11.220812 -0.90134716 4279635980
39.233097 11.146039 -1.0369902 4279309326
40.043903 -9.6881618 1.3787384 4282004524
40.263718 -9.8561382 1.3868523 4281742385
40.897446 -10.83662 2.1873722 4280032538
41.181301 -10.754025 2.184864 4280032285
41.163841 -10.82876 2.13377 4280032285
41.168308 -10.203432 0.98287392 4281478951
41.157135 -10.071065 1.0064325 4281478951
41.257221 -10.214088 0.96613979 4281413929
39.479088 -9.7115211 1.5178118 4282004787
39.896935 -6.0497193 1.3390808 4280559384
39.765984 -5.9395676 1.3499174 4280888090
40.298588 -5.8300018 1.4030123 4281016590
39.962368 -8.0093889 0.8263092 4282135851
40.060692 -4.281395 0.39572525 4282005042
39.781822 -4.4041748 0.51597977 4282396968
41.485176 -2.2731907 -2.1159439 4283582524
41.172859 -2.5837674 -1.9581671 4284237367
40.557922 -2.5322392 -2.1150074 4283648070
40.821758 -3.3856881 -1.1977224 4282661166
41.116776 -3.4658351 -0.98953247 4282136103
40.514545 -3.537852 -1.0659418 4282859828
39.645405 -9.7364664 4.172761 4278190080
38.938732 -8.382493 0.7940836 4282135852
40.18327 -3.2962961 -1.497797 4283779401
38.605911 -5.319056 1.0952148 4281281308
38.986961 -5.2120762 1.1334438 4281411355
39.050266 -5.0600014 1.0263805 4281477140
39.415337 -4.961812 1.0809526 4280558101
42.07576 -8.892662 0.95952606 4281282607
42.155602 -9.1143818 1.0588512 4281217835
41.887009 -9.1084757 1.03825 4281675055
39.867748 -9.3551397 1.3002377 4281939508
39.835938 -9.174119 1.1892338 4281873197
38.60368 10.53196 -1.4679661 4279571470
39.40099 1.0013788 -3.2884684 4281150748
38.35841 -9.5104723 1.8767538 4281677624
38.741116 -9.9627905 2.1844187 4279572758
39.403667 11.558197 -0.45337009 4279243021
39.962627 12.07651 2.6506815 4278190080
39.781052 12.115973 3.1364498 4278190080
40.267326 12.107309 2.9829683 4279243534
40.865421 11.807857 1.040308 4279243280
39.884487 -9.5403109 1.3637295 4282005043
39.758976 -9.7554665 1.4434128 4282070323
40.36586 -10.507614 1.9798546 4280230426
40.260509 -10.560208 2.0810251 4280230426
41.095291 11.623878 0.38340664 4279439889
40.973454 11.696188 0.6578722 4279243279
37.755894 12.184549 1.6673508 4279243537
40.050392 12.047557 2.2990313 4279243021
40.282734 12.085192 2.6010456 4279243021
40.062035 -10.373199 3.6014566 4278190080
39.830238 -10.661976 2.5843182 4279703829
39.192493 -5.3999801 1.2636156 4281214234
39.520111 -5.3237009 1.3004341 4281148436
38.480671 -5.0327301 0.8151598 4281213725
40.212639 -10.835514 2.5097675 4279704597
39.316269 -4.4976721 0.40863228 4281938726
40.060131 -4.0466151 -0.15097237 4282465851
39.924751 -4.204967 0.12686634 4281940790
40.671848 -4.6847715 1.2582655 4280951313
39.030529 -3.2370954 -1.8637218 4285683033
38.749973 -3.2444682 -1.9214859 4285358433
41.854134 -2.3781011 -1.9711294 4284780399
41.670849 -2.6367598 -1.8061934 4283843186
39.927818 -0.54473066 -2.9941177 4282071091
40.208076 -7.9261117 0.83584023 4282070059
40.129005 -7.663034 0.86951733 4281806890
40.339626 -2.0022609 -2.471036 4282267689
40.959671 -1.6296661 -2.5213118 4282069277
41.00209 -2.0918436 -2.2943649 4282924337
38.630657 -3.0508087 -2.1110868 4286602573
38.901802 -3.1103497 -2.0129423 4286867803
41.834255 9.2880487 -1.5628548 4279047181
40.440948 -4.246151 0.53521729 4281545519
40.472862 -4.3632197 0.80904102 4281478697
40.155975 -4.3606343 0.63560867 4281741867
39.602566 -8.0733538 0.81970024 4282136365
40.287689 -10.122021 1.4445953 4281611058
40.452133 -9.9972019 1.3604574 4281742385
40.62252 11.758924 0.60579967 4279243280
40.841415 11.6738 0.40694714 4279243279
41.850182 11.817039 2.2325478 4278190080
41.792938 11.80127 2.052063 4278190080
39.686253 11.719537 0.00084781647 4279439374
41.017208 -0.16749603 -2.9199495 4281542674
40.476894 -0.08940357 -3.0080681 4281478700
40.979439 0.97357029 -3.0708199 4280951062
45.109543 -8.0436821 1.1863375 4281938217
44.758278 -7.7628937 1.2205973 4281741089
45.235126 -7.7074356 1.2329445 4281741602
40.203938 -6.0862112 1.3501711 4280822037
42.745396 -7.354949 1.0338688 4280754710
43.108082 -7.3273435 1.0848589 4280361497
42.906418 -7.577878 0.99173355 4281148436
39.62434 11.378075 -0.70764732 4279635980
40.467701 10.444582 -1.272562 4279637520
40.253593 10.596951 -1.2285004 4279506452
40.49469 10.519139 -1.2244759 4279571728
39.855297 -10.190438 3.7668476 4278190080
39.15313 -3.2984216 -1.7709284 4284171842
38.282581 -2.1702194 -2.6987209 4282859824
40.989502 -2.8324649 -1.7940445 4283712301
41.395962 -2.8683167 -1.6671925 4283186992
41.042847 -2.9531994 -1.6846323 4283187508
40.919609 -3.0307052 -1.638772 4283254067
39.603718 -1.7291501 -2.724679 4281479716
40.196396 -1.6569655 -2.6452866 4281806621
39.070744 -1.798866 -2.7811384 4281545512
40.562077 11.68834 0.25213909 4279308813
40.595764 11.594148 -0.034542084 4279308815
40.195587 11.675677 0.02210331 4279308813
