# .PCD v0.7 - Point Cloud Data file format
VERSION 0.7
FIELDS x y z rgba
SIZE 4 4 4 4
TYPE F F F U
COUNT 1 1 1 1
WIDTH 1114
HEIGHT 1
VIEWPOINT 0 0 0 1 0 0 0
POINTS 1114
DATA ascii
-26.255203 20.991299 1.8888383 4285227875
-25.82435 20.977074 2.0524325 4285163874
-28.029045 20.994432 3.6981425 4284374355
-27.831276 20.760921 3.1294794 4285162329
-28.03923 20.706411 3.0336452 4285294175
-27.707243 20.743093 2.985261 4285228379
-27.865877 17.253689 -5.3861313 4287796881
-27.593161 16.896341 -5.6170568 4289042057
-27.235268 17.29398 -5.3875132 4290222485
-28.828787 21.157614 4.0947495 4284041533
-29.654682 -8.2280741 -9.3733473 4283382824
-30.269567 -8.4264231 -9.2681751 4283844667
-27.362516 16.646534 -5.7761078 4288714646
-27.066538 16.916071 -5.6262822 4289111200
-27.792843 15.926466 -6.1889563 4289372069
-31.9258 -18.642025 3.3733325 4279704083
-31.879921 -18.434889 3.1403279 4280097048
-26.061388 20.013863 -3.0457411 4285886829
-25.745268 20.194353 -2.8149021 4285885543
-28.490719 19.932085 -3.0933378 4285295202
-26.633581 18.258799 -4.7396426 4287004017
-30.341421 -7.8920698 -9.3974371 4282598957
-28.43646 -3.8731282 -10.167553 4283386935
-28.97793 -4.071279 -10.13101 4283517756
-28.493258 -4.4795399 -10.13242 4284173885
-27.742264 20.75589 2.0022194 4284964966
-28.18046 21.109476 0.067188978 4283979087
-25.243896 21.072475 -1.337682 4284637532
-25.654968 21.128622 -1.1725786 4284767577
-25.690172 21.01837 -1.4873955 4284308562
-29.871874 4.999465 -9.9582148 4283387196
-30.514774 -14.424794 -6.1060848 4281674538
-33.85638 -18.100786 2.0425968 4280358674
-31.782494 -18.133659 1.901974 4279835667
-31.966358 -18.124878 1.6907661 4279639571
-29.009304 7.2707791 -9.6919527 4284374614
-31.200062 -18.274342 2.274004 4280359186
-30.957922 -18.278866 1.9953473 4280359186
-31.237951 -18.203585 1.9539064 4280097295
-30.360729 -18.509264 1.9355764 4279966742
-30.247272 -18.596348 2.0362809 4280361246
-30.070301 -18.560055 1.8643422 4280163868
-28.640495 14.743163 -6.85287 4287593822
-29.200249 15.138831 -6.6010313 4286808696
-29.225954 14.534361 -6.9318748 4287531631
-28.30764 5.6614342 -10.032988 4284305728
-28.006649 6.0969934 -9.989521 4284569429
-25.171757 3.8551674 -10.489538 4284240973
-25.511097 4.2417827 -10.433259 4284372811
-25.653334 3.7614825 -10.462922 4284108867
-32.504341 -17.32275 -1.293889 4280624152
-31.212862 -17.100357 -2.1702096 4280951837
-30.294807 -4.4525633 -9.9919109 4282399288
-32.511093 -12.270399 -7.4791965 4282070311
-28.21092 20.874147 3.5309377 4284636501
-27.836018 20.907793 3.5080416 4284899415
-28.553852 14.271794 -7.109767 4287467151
-28.162872 16.736584 -5.6892591 4288188043
-27.747585 13.679114 -7.4234142 4287667337
-27.523073 13.164675 -7.6742992 4287073925
-28.814003 -10.918717 -8.559042 4281610796
-27.016479 -9.6290188 -9.2027779 4281940269
-27.192266 -8.9759064 -9.3743563 4281938980
-30.291698 -13.776795 -6.694684 4282134307
-29.931423 -13.462599 -7.0165195 4282135589
-27.030256 21.25473 -0.086214781 4283913809
-26.405186 21.269604 0.2560904 4283913815
-28.388229 21.021444 0.37505078 4283979087
-27.806337 21.099653 0.44843388 4283847505
-31.255039 -13.116467 -7.050127 4281546536
-29.919024 -14.415732 -6.2133551 4281608981
-30.225014 -14.094339 -6.4406805 4282267925
-26.830193 20.134222 -2.8828356 4286280301
-27.403603 21.229738 -0.33559442 4284242007
-31.049517 20.656769 -1.4499371 4283844165
-27.742817 21.060806 -1.0675654 4284110408
-27.11278 21.198601 3.9415708 4279572760
-27.257181 21.372398 4.4054203 4282859823
-27.989222 -14.246315 -6.6561627 4282397476
-26.574013 17.911047 -4.9872723 4289238142
-29.277246 -2.0347922 -10.200559 4284240194
-29.818945 -2.5831075 -10.122993 4284238663
-28.952429 -2.6191106 -10.208839 4283386943
-29.433662 -4.7880125 -10.037754 4283647556
-29.849487 -4.5067043 -10.030064 4282924331
-30.164303 -4.6660175 -9.9898977 4282858029
-29.861307 -1.8759894 -10.14005 4283254584
-20.513027 9.1270065 -9.865015 4287132518
-21.474243 9.2649336 -9.7213821 4285884751
-21.405609 8.5367985 -9.9079437 4284570710
-28.471178 -5.5833559 -10.03038 4283187774
-28.470587 -5.1131492 -10.085222 4284370751
-29.451752 -5.3367968 -9.9785309 4283187511
-29.204458 -8.6697216 -9.2893457 4283189302
-34.470413 -17.752668 0.54021668 4280426523
-29.609594 -17.665686 -1.6880295 4281281316
-30.320812 -17.811777 -1.0300426 4280033819
-28.503716 17.10116 -5.4408512 4287534476
-26.979025 14.538152 -7.0024033 4288846988
-27.401707 14.148663 -7.1846657 4287006591
-30.694601 -17.070974 -2.4506314 4281280284
-30.196909 -17.2358 -2.3704031 4281476881
-31.706121 -15.233326 -5.0719032 4281543457
-29.074423 -3.7106075 -10.141402 4282926135
-29.191673 0.10588455 -10.266065 4284174151
-28.682077 15.293282 -6.532939 4287662223
-30.296972 -18.143541 0.23592043 4280230934
-32.029839 -18.115561 1.2848277 4280295446
-27.433002 21.070238 0.84041762 4283979346
-27.285694 21.163898 0.52910638 4283848019
-26.935324 21.12591 0.90377212 4284373336
-26.745623 4.2229538 -10.334681 4284700752
-27.82724 8.8110285 -9.3482952 4286151024
-27.181007 9.215414 -9.2620039 4285556828
-31.665344 -15.562517 -4.6737146 4281281313
-27.357304 20.97164 3.4826665 4284702549
-26.77957 21.337637 4.1818514 4279572760
-27.046585 21.381468 4.3815575 4283126329
-28.236477 20.799316 3.3649507 4284899676
-28.246691 20.721285 3.1570971 4284899676
-27.796782 20.824814 3.2948031 4284899415
-30.033226 -7.3747859 -9.5485458 4283781442
-27.623955 10.963286 -8.621974 4287990406
-25.944008 7.9127812 -9.7026443 4284307784
-26.517965 7.6743727 -9.7417765 4284832332
-25.868622 7.4785051 -9.8184986 4284567609
-26.918344 10.503671 -8.8680525 4287532686
-26.263321 10.90676 -8.7927523 4288579717
-26.850595 11.068384 -8.6715698 4289833870
-26.176905 21.115519 3.6078048 4284899413
-26.100773 21.185709 3.7783179 4284702288
-26.246727 21.178135 3.7445717 4284571729
-26.665585 20.89333 2.9445369 4285228637
-26.625252 20.878443 2.6787217 4285359457
-26.374735 20.894791 2.9219685 4285360733
-26.690847 20.890888 2.3434014 4285425507
-26.180393 20.907616 2.4669271 4285359200
-26.277327 20.886747 2.7099822 4285360733
-30.805864 -18.179373 1.3510582 4279704084
-30.606417 -18.227764 1.3704932 4279836178
-30.530382 -18.205217 1.11968 4280033556
-26.053782 21.174755 -0.97833872 4284242258
-26.025513 21.221277 -0.76145864 4284111186
-26.366926 21.224449 -0.74344754 4284176465
-27.467171 21.241938 -0.18789625 4284044626
-27.664614 21.215672 -0.30593204 4284242003
-23.829971 20.7864 -1.8294775 4285228640
-24.235552 20.826946 -1.78531 4285228902
-24.101347 20.703932 -2.0180264 4285098083
-27.040071 20.815722 -1.7225895 4284571989
-29.851507 -0.76114655 -10.14532 4282990900
-25.283918 21.135868 -1.1136749 4284637532
-28.434826 19.670485 -3.4539359 4286412138
-26.857882 21.197266 0.62109566 4283979609
-26.497345 21.230677 0.55956864 4284176218
-26.465061 21.171772 0.91009784 4284635228
-26.266825 20.960978 -1.5317764 4284113233
-27.796009 -17.210924 -3.2742679 4281673761
-28.376324 -17.273842 -2.9758162 4280889900
-27.637243 -17.432255 -2.9127395 4281151778
-28.686684 -18.950672 1.9328487 4280098329
-28.542419 -19.260906 2.0571377 4279901462
-28.454342 -19.059265 2.0309806 4279901208
-29.132227 -18.39814 1.1401858 4280624155
-29.280869 -18.323013 0.91291094 4281279007
-29.506193 -18.354059 1.1001799 4280820256
-30.216631 -11.826576 -7.9813452 4281609256
-27.207785 21.111904 -1.0283766 4284242008
-28.449635 12.468269 -7.9316287 4287269216
-28.015718 12.834053 -7.8102937 4286869096
-30.859554 -18.222561 1.6403137 4279836178
-27.895784 20.699259 2.2224832 4285032295
-27.646255 20.719046 2.5462892 4285230181
-27.870304 20.678669 2.7538264 4285230181
-26.735535 20.956062 1.8732351 4285097830
-27.246284 20.890827 1.7915163 4284768868
-27.062567 21.024376 1.3137881 4284767325
-25.533916 11.252209 -8.7240038 4288316018
-25.730364 10.476113 -8.9800806 4289172098
-24.705271 10.944286 -8.9079809 4286151796
-27.687065 19.297039 -3.9489946 4286610303
-27.377073 19.433388 -3.8268328 4286610798
-27.827265 19.532356 -3.6888702 4286412139
-28.756798 20.543072 2.5351505 4285229157
-30.178352 -10.280659 -8.6776123 4282859574
-27.282318 20.814407 3.0160332 4285425501
-26.954983 20.87289 2.9976981 4285228638
-27.076996 20.914354 3.2315629 4285162586
-30.262327 -0.36822009 -10.101353 4283319093
-26.48575 21.072128 1.3685243 4284833121
-25.963663 21.195694 0.94384503 4283980380
-25.723341 21.242813 0.69400024 4283980380
-25.514296 21.188824 1.0850155 4283849303
-27.628693 -7.500957 -9.7233181 4282859568
-27.111481 -7.0137877 -9.8768129 4283122485
-28.419615 -6.9553871 -9.7824507 4282727730
-26.312042 -4.4231491 -10.29789 4283058745
-27.394915 -4.9684029 -10.17994 4283321920
-26.309378 -5.4049454 -10.207518 4283515968
-27.547928 -4.1309824 -10.218825 4284436028
-30.959436 -18.120449 0.72215199 4280688411
-26.992167 8.5957565 -9.4654016 4285490006
-28.250637 1.4104533 -10.341188 4283649606
-29.358385 -1.5246222 -10.207202 4283188796
-26.032913 21.044266 -1.4095359 4284242519
-25.953939 20.947687 -1.6167588 4284178007
-26.452402 20.894232 2.4877532 4285490786
-27.618406 20.912012 -1.4594693 4285094217
-25.903612 20.586254 -2.2152908 4285489757
-26.98975 19.447376 -3.8102367 4286740590
-27.059711 19.255241 -3.9978349 4287003505
-26.40041 19.296007 -3.9218886 4286411881
-25.9704 19.496071 -3.684283 4286347125
-30.189419 -6.2730379 -9.7663803 4283450417
-28.935673 -6.3665791 -9.8636169 4282794811
-29.346062 -5.8669987 -9.9136181 4283319610
-26.891489 2.9468403 -10.40988 4284503371
-27.581982 3.3279772 -10.324184 4283845687
-27.545589 2.7197835 -10.359832 4283321149
-27.885181 1.8571467 -10.365685 4283648067
-28.240906 2.3859761 -10.311954 4283714876
-29.845158 -13.704696 -6.8375125 4282004002
-29.429241 -13.639578 -6.976697 4281873436
-29.770983 -10.854839 -8.4940939 4282266665
-30.679892 -18.323383 1.8045061 4279966479
-30.512949 -18.289839 1.5431429 4279704592
-24.961493 13.018629 -7.9667225 4285884515
-25.607969 13.023849 -7.8743372 4285949776
-25.275129 12.527449 -8.1681385 4287656539
-25.420485 0.77774978 -10.59833 4282793267
-24.948189 0.90165293 -10.644992 4282922535
-25.462296 1.3747752 -10.602009 4282926909
-27.574226 1.46416 -10.398467 4283650628
-28.660965 -17.067966 -3.2724171 4281411359
-28.919785 -16.891449 -3.4905109 4281148707
-29.470421 -16.95734 -3.1952605 4281282086
-27.756369 21.198473 -0.20452571 4284110927
-26.220154 16.429834 -5.9477053 4291873974
-30.382154 -4.9944258 -9.9251766 4283518286
-29.373556 -4.3333807 -10.088703 4283320637
-28.314247 -17.484671 -2.583631 4281741604
-28.856432 -17.355993 -2.6678395 4281414192
-29.119074 -17.504648 -2.2512853 4281478438
-29.822733 -17.12632 -2.747915 4281215006
-30.071487 -16.960442 -2.9567003 4281084698
-26.792818 -16.282286 -4.7541966 4281018918
-27.021824 -16.624262 -4.3152952 4281347873
-26.119579 -16.690617 -4.3236828 4281412120
-25.654026 19.223061 -3.9629741 4286872694
-24.974516 19.314095 -3.8405168 4286676597
-23.75021 19.899111 -3.1600883 4286150508
-24.350582 20.06455 -2.9771254 4285953904
-24.49688 19.825243 -3.2654464 4286937201
-21.991842 -1.8757327 -10.930663 4282399015
-21.684376 -2.3277807 -10.941111 4282792749
-21.085138 -2.1069517 -11.025069 4283581494
-25.894186 21.276325 4.0141478 4284898387
-26.283899 21.271362 3.9673402 4284505426
-26.025862 20.91304 2.952816 4285229143
-24.39147 12.908099 -8.1076717 4285952863
-24.458744 13.325239 -7.9015965 4287932305
-26.204308 18.008797 -4.9310389 4288127171
-25.797884 20.973064 3.2274714 4285557593
-25.360348 21.015081 3.3080282 4285490525
-25.614464 21.078121 3.515774 4285490008
-26.520096 14.451277 -7.0712395 4289373334
-26.197168 14.593449 -7.021184 4289638852
-27.0193 16.591722 -5.8229289 4288517516
-26.621733 16.738146 -5.7410851 4288463271
-25.720327 13.528328 -7.6055036 4285754722
-25.754494 14.014947 -7.3448782 4287592561
-29.618448 -18.293438 0.84912324 4280951328
-30.426075 -18.180046 0.75486422 4280361753
-30.091055 -18.245358 0.92071867 4280427539
-29.733213 -18.227541 0.47738385 4280295958
-26.666409 17.196527 -5.4582567 4290153092
-29.967991 -14.836781 -5.8123307 4281215521
-28.920013 -16.569651 -3.9735675 4281412884
-29.369301 -16.722239 -3.5963919 4281215265
-28.629242 21.060658 -0.20317817 4284440414
-26.759541 8.0641804 -9.6260643 4286348126
-27.691744 8.2377005 -9.5270243 4285163864
-27.367077 7.7174239 -9.6882658 4285163612
-26.57523 -18.046041 -1.6939378 4280756006
-26.814941 -17.863461 -2.206285 4280756254
-30.302219 -17.057055 -2.6661563 4281281298
-29.825054 -18.595026 1.8278797 4280492061
-30.011086 -18.624132 1.9100103 4280492061
-26.755125 21.412161 4.3378963 4279572760
-27.000448 20.874577 2.2074177 4285425763
-27.150791 20.828503 2.447154 4285425763
-27.268579 20.819799 2.2089319 4285097317
-27.24007 -8.3648777 -9.5388737 4282398259
-26.492966 -8.5575581 -9.5561953 4282397739
-26.13522 21.283241 -0.24772263 4283784270
-25.915329 21.292614 -0.00083112717 4283782484
-25.100763 20.984211 2.1926637 4285163364
-25.154619 20.950661 2.4715333 4285295207
-25.495169 20.946646 2.3185129 4285163877
-27.169609 20.816544 2.8422668 4285622367
-26.193129 14.223631 -7.2015138 4287331965
-29.591984 -13.007416 -7.3806467 4281676842
-31.181423 -18.385431 2.5471458 4280293646
-30.413212 -18.402332 1.7267227 4279837204
-25.511663 20.395226 -2.5250962 4285230432
-27.451271 21.226948 -0.028135061 4283979602
-29.500578 -14.698576 -6.0098906 4281872164
-29.172377 -15.098753 -5.6919923 4281280804
-29.864548 -18.319069 1.1191068 4280492577
-30.648323 -18.483044 2.1481757 4280229398
-30.484245 -18.58814 2.1733203 4280361246
-27.270216 11.408209 -8.473979 4288119921
-30.708311 -7.2985153 -9.5055008 4283119662
-28.663754 -1.8852556 -10.273869 4284306754
-27.796749 16.452734 -5.8725386 4289241771
-29.58362 -9.7049932 -8.9431629 4282728755
-28.056822 -16.55217 -4.2318172 4281084191
-29.936489 -13.890131 -6.6705647 4281871902
-28.399351 -14.003633 -6.8391976 4281610020
-28.17757 -13.675593 -7.1459513 4280953888
-28.904734 -13.769423 -6.9609509 4281805597
-28.045712 -0.86217928 -10.364544 4282991410
-28.149141 -2.8282809 -10.252067 4283255356
-28.706032 -3.3152471 -10.184768 4283120953
-27.875364 -3.4468236 -10.233453 4282794549
-25.850687 7.0700583 -9.9287157 4287323986
-26.70192 7.3367319 -9.8214922 4284962636
-26.68384 6.9186449 -9.9213505 4285226055
-26.419052 9.7404366 -9.152113 4286476132
-26.347828 8.9802494 -9.3782539 4285427047
-25.723364 9.2951889 -9.3169365 4287925871
-27.27816 -11.572661 -8.4289837 4282398506
-26.709133 -11.954645 -8.329895 4282071094
-26.688795 -11.571336 -8.4950237 4282794798
-29.55854 -0.61010981 -10.19283 4282925622
-26.254641 21.41275 4.2919097 4284175957
-28.020533 14.127272 -7.1851869 4287198328
-26.880873 6.1982365 -10.048231 4284963919
-27.337563 6.6589184 -9.930769 4285359449
-29.037802 -18.626863 1.6601794 4280624170
-28.828304 -18.563696 1.4837697 4280755744
-29.112635 -18.499281 1.4129449 4280951838
-30.574108 -18.408852 1.9261748 4279966742
-25.759068 21.373247 4.2376323 4284570449
-24.464439 21.080311 3.3063698 4285097824
-23.938198 21.132704 3.3565803 4285162594
-24.397188 21.17857 3.6481686 4284769114
-25.435751 21.218365 3.9142439 4284702805
-25.873032 21.13994 3.6837482 4284964948
-25.542416 21.214817 -0.77507997 4284177757
-25.722551 21.222366 -0.76521802 4284177757
-25.535664 21.189882 -0.87574577 4284177757
-24.789536 20.685724 -2.1014793 4285294943
-24.636662 20.855331 -1.7815461 4285032030
-25.214552 20.892185 -1.7381227 4284702294
-29.199728 -0.6062367 -10.243207 4283517503
-26.148491 20.785168 -1.8617656 4284111701
-29.968102 -17.444466 -2.0271864 4281213985
-30.258858 -18.285091 1.2729394 4280099344
-25.860205 20.925402 2.4204769 4285163874
-25.729576 20.816082 -1.8492289 4284635988
-26.404259 21.086815 -1.2383852 4284373072
-26.398373 21.167368 -0.97980094 4284241743
-26.775808 21.152391 -0.99747372 4284241487
-26.166201 21.265024 -0.51549554 4283914063
-25.790579 21.277239 -0.32640886 4283783500
-26.003651 21.030857 3.4198575 4285097559
-25.310665 21.123665 1.4367042 4284570973
-25.413269 19.715639 -3.4111283 4286611064
-24.087137 18.038527 -4.9173589 4286741615
-23.293766 17.898132 -5.021997 4286741618
-23.510111 18.48035 -4.5727611 4286937717
-30.943604 -18.509617 2.5243433 4280426010
-30.887098 -18.545387 2.5191188 4280426010
-30.138744 -18.479143 1.7185096 4280164633
-30.19985 -18.380556 1.531033 4279640343
-30.038006 -16.747034 -3.3093419 4281347875
-25.858105 18.140274 -4.8429813 4287400077
-26.179512 18.369446 -4.6630535 4287200878
-25.791834 14.491014 -7.103694 4287993744
-26.391718 15.889315 -6.2843103 4288062123
-28.9298 -12.278234 -7.9101949 4282134833
-29.488327 -11.800228 -8.0939159 4282070300
-26.171946 20.94562 3.1594503 4285228891
-24.84684 21.139017 -1.0016375 4284637532
-24.156258 20.514484 -2.3483486 4285491808
-23.343016 20.54195 -2.2389071 4285557091
-28.121679 -18.500856 1.2315465 4280689177
-28.382063 -18.540108 1.3827169 4280491545
-28.16589 -18.59729 1.4710279 4280426009
-25.684717 21.150621 1.2260792 4284308315
-23.93062 20.963356 -1.4310567 4284769628
-24.11805 21.038145 -1.2714186 4284769628
-24.322371 20.934761 -1.5675092 4285162850
-24.683729 21.127916 1.527447 4284900193
-25.088507 21.198551 1.0873588 4284111442
-28.103058 -16.098572 -4.7943411 4281412128
-29.155714 -18.286133 0.63600111 4281344029
-28.893164 -18.341692 0.87007093 4280294936
-28.486734 -18.321636 0.59238267 4280033039
-31.588247 -18.172346 2.1431725 4280425746
-31.449921 -18.152662 1.7243927 4280031761
-23.854218 11.37924 -8.8254147 4285688173
-24.509607 11.7008 -8.6411362 4285886306
-26.87216 13.007979 -7.7725573 4287005308
-26.288765 13.206531 -7.7030849 4285492571
-28.536604 -1.285459 -10.306601 4283845688
-28.098467 -1.5196226 -10.338367 4283386428
-28.636026 -0.65296435 -10.314968 4283649088
-28.275349 -18.058121 -1.0501454 4280559637
-28.504061 -18.1311 -0.66995502 4280819993
-25.197313 20.000271 -3.081682 4286610798
-29.51095 -17.316505 -2.4950845 4281543464
-28.207359 -16.972296 -3.5577195 4281281572
-27.770582 7.228941 -9.7890987 4285490005
-27.975227 4.2442141 -10.227873 4284240963
-30.507109 -13.082455 -7.1752071 4282202170
-26.793821 11.718702 -8.3758202 4287332719
-25.900417 1.9821337 -10.541472 4283781182
-25.294355 2.0424566 -10.601122 4283255865
-25.769753 2.57321 -10.534051 4283712820
-23.395685 20.942926 -1.419852 4284639072
-23.900162 20.881676 -1.633306 4284900445
-25.725594 21.28997 -0.11259794 4283717201
-25.393545 21.289383 0.15227175 4284110676
-26.407339 20.929077 2.2198749 4285227875
-25.695618 21.100653 1.450321 4284505942
-25.974516 21.054047 1.6239148 4284768608
-26.029142 21.133596 1.2349732 4284374882
-24.190664 9.8046608 -9.2626772 4284570695
-24.090427 9.2461548 -9.4076843 4284895298
-26.187944 -16.989653 -3.934325 4281019950
-25.526169 -16.984688 -3.9884615 4281937959
-26.673973 11.38835 -8.5501814 4287854445
-23.350002 19.331995 -3.7914274 4287202705
-23.987288 19.289864 -3.8496437 4286939262
-23.275583 19.00996 -4.1119909 4287069310
-28.945749 -1.5959957 -10.251209 4283912503
-29.611095 -3.3465168 -10.112654 4283383352
-28.982155 -1.1405032 -10.261175 4283846203
-26.287571 11.226303 -8.6589336 4288188304
-26.107937 11.566467 -8.5284576 4287464302
-28.648504 -18.497566 1.3105634 4280426523
-28.901539 -18.464733 1.2774854 4280558358
-24.720676 21.288689 4.1038351 4284440152
-23.908253 21.364349 4.1615276 4284439123
-24.198689 21.459034 4.5636148 4283582526
-23.118698 21.743464 4.9372668 4283320895
-23.193302 21.529224 4.4488649 4284702297
-22.996984 21.555191 4.5569596 4283781960
-26.048895 18.699022 -4.416007 4286674026
-25.851887 18.991833 -4.175292 4286674554
-26.655228 18.64459 -4.4571857 4286347884
-30.087502 -11.386359 -8.2207813 4281806630
-24.259159 21.051441 3.0829463 4285163363
-24.710966 21.026316 3.134315 4285163102
-24.891794 20.987507 2.9946816 4285360483
-25.111042 20.983479 3.1200359 4285425501
-25.14954 20.957224 2.8835223 4285295201
-25.770035 0.37046647 -10.556705 4283517756
-25.835428 0.92968512 -10.556547 4283122744
-26.498304 0.70392239 -10.49551 4283648319
-23.402678 21.036568 2.5143332 4284900706
-23.539143 21.030148 2.2881784 4285162591
-23.051649 21.038296 2.3944161 4284965988
-26.158562 1.4042195 -10.524947 4283253564
-29.428511 -1.0151358 -10.20498 4283648312
-25.509333 -7.2806435 -9.9573956 4282793266
-25.521534 21.353258 4.3022504 4284373331
-25.200281 21.428627 4.676712 4284111441
-25.696806 21.458183 4.7314024 4283913806
-28.371635 3.8098197 -10.220412 4284371525
-25.526564 5.5269079 -10.269793 4284766787
-24.705959 5.2532558 -10.373402 4284568130
-24.516943 5.8418388 -10.291883 4284898126
-20.758781 21.113653 2.2158883 4285096026
-21.488646 21.102533 2.2073612 4284834914
-21.172138 21.108154 1.8596634 4284834141
-25.371073 21.208565 -0.77395105 4283850328
-27.904316 -18.159676 -0.70600319 4280099092
-27.18642 -18.133932 -1.0993009 4280953373
-27.027269 -11.191903 -8.609745 4282072881
-27.37797 -10.663135 -8.7881317 4282595375
-27.840389 -11.062912 -8.5830679 4282397226
-29.128471 -17.179403 -2.9146242 4281085478
-29.934475 -18.382381 1.3704932 4279968029
-25.023972 21.210667 -0.65180564 4284374870
-24.32218 21.196138 -0.59906697 4284636760
-24.606693 21.259695 -0.20676064 4284504147
-23.591547 21.134197 1.5257504 4285029723
-24.112051 21.104208 1.786288 4285293662
-24.107594 21.183716 1.2900534 4284439383
-18.848385 20.971844 -0.44002914 4283253038
-18.465881 21.061176 -0.072856665 4282658075
-19.186224 21.081732 -0.023025274 4284106299
-25.154705 18.985723 -4.1726203 4287069039
-24.9816 20.223013 -2.7905469 4286279782
-25.493771 21.159771 -1.0204649 4284571997
-25.248938 21.170843 -0.91734385 4284178523
-29.50046 -13.846268 -6.7912235 4281609499
-27.94257 -13.347624 -7.4240131 4282069289
-27.059576 -13.179416 -7.6388035 4282002983
-27.762466 -13.012494 -7.6558404 4282463006
-26.551128 18.98769 -4.1874633 4285691241
-26.024746 21.112045 -1.2112141 4284439382
-28.852863 -12.629433 -7.7167025 4282265376
-28.414906 -12.633467 -7.7756681 4282201133
-25.721451 8.7758026 -9.4722948 4285753709
-23.111683 21.052277 2.1087804 4285031518
-25.518803 15.223461 -6.754137 4287070071
-25.400326 14.830912 -6.9767818 4287793265
-25.119555 15.161797 -6.8372221 4288191115
-21.371233 14.512649 -7.5591097 4290883179
-21.095247 14.237389 -7.7426081 4289901784
-20.732092 14.489753 -7.6098528 4289244085
-24.29744 18.912149 -4.2160263 4286808700
-25.245268 15.608201 -6.5449495 4287465846
-27.786547 -5.4208527 -10.112057 4284175176
-26.890266 -6.4773479 -10.008725 4283516483
-27.751955 -6.4727879 -9.9425726 4283844672
-25.902479 15.509903 -6.5488782 4287333755
-24.446249 18.457638 -4.6081858 4286872177
-28.3899 5.2044258 -10.09021 4284305723
-27.185106 5.8332882 -10.093512 4284964434
-28.225128 6.706234 -9.8630371 4285095511
-27.579597 6.3178787 -9.9837523 4285095515
-28.797674 -8.1430511 -9.4719391 4282859052
-27.898258 -8.0321455 -9.5760765 4282397217
-26.908573 2.3946147 -10.431217 4284307528
-26.346136 2.5099201 -10.477632 4283583806
-25.224445 17.146084 -5.5376506 4287794056
-24.723896 17.065504 -5.6012959 4287660166
-25.809538 17.793203 -5.0994773 4288056453
-28.356293 -15.139755 -5.7720671 4281084961
-23.651665 21.092785 3.0538898 4285228644
-22.790354 21.120895 3.047204 4284966757
-23.193371 21.17329 3.3826466 4284769373
-26.462744 20.930769 3.1018708 4285293916
-29.281096 -18.707569 1.820791 4280296736
-29.56769 -18.630379 1.8102268 4280426526
-29.512306 -18.720858 1.9376935 4280296736
-29.909775 -18.466461 1.5817225 4280164633
-29.657497 -18.464479 1.4829332 4280295710
-27.918568 -18.822491 2.1851633 4279835417
-27.998329 -18.843805 2.2149067 4279967245
-27.97648 -18.835527 2.2222512 4279967245
-24.526825 20.991625 2.7221274 4285490788
-24.720846 20.983402 2.8045087 4285360483
-24.742968 20.981024 2.6963346 4285490788
-25.426928 -17.818516 -2.7758634 4280755479
-25.417673 -17.90313 -2.6132114 4280755479
-25.050873 -17.920137 -2.6638396 4281148951
-26.124538 12.0505 -8.2898407 4287464826
-26.150904 8.4112415 -9.5539188 4286347885
-24.239574 -4.8780231 -10.435389 4283384875
-25.325365 -5.1514554 -10.315447 4283186997
-28.69117 -16.791702 -3.7104666 4280822307
-27.982735 -16.834908 -3.8488674 4281413148
-25.800495 21.247711 -0.5760684 4283916118
-21.623047 20.39259 -2.3665063 4285623398
-22.412369 20.580261 -2.082546 4285492581
-22.581493 20.390522 -2.4403167 4285951081
-28.801739 20.961668 -1.0466068 4284241238
-25.181019 -11.976045 -8.4802341 4282858794
-24.373184 -11.562675 -8.7747202 4282399275
-25.369205 -11.31666 -8.7714481 4282399275
-25.337854 -13.421431 -7.572464 4281674273
-25.216061 -13.89135 -7.2293305 4281543716
-24.778936 -13.504505 -7.5620127 4282069549
-27.388668 -13.59672 -7.3072047 4281544226
-25.487606 21.234428 -0.66102052 4283850328
-24.655394 8.7629375 -9.5107527 4284503610
-25.333378 8.3512659 -9.6033401 4285290835
-24.214014 20.295202 -2.6774025 4286019444
-25.340017 17.653389 -5.2081447 4287332977
-28.176397 -11.543951 -8.3494062 4281611306
-27.981134 -12.027058 -8.1550207 4282267429
-27.401051 -11.99551 -8.241107 4282135853
-23.533546 20.131796 -2.8693657 4286411888
-26.712328 -18.370947 -0.14840651 4281018399
-27.327948 -18.351263 0.12125087 4280493857
-26.593138 -18.490017 0.4056797 4281411608
-28.714546 -18.724459 1.7477915 4280557854
-28.494993 -18.848513 1.9283869 4280032281
-29.166994 -19.108093 2.1223671 4280033817
-29.017092 -19.22308 2.1192031 4280360725
-28.940773 -19.053724 2.0148339 4280032792
-26.297941 -17.824755 -2.5069773 4281148695
-26.840744 -17.72529 -2.5700612 4280363811
-23.059736 21.14422 1.2947321 4284833367
-23.098644 21.08573 1.7337756 4285031262
-25.794991 21.282646 0.27795863 4284044885
-25.032051 21.254452 0.62627578 4283979343
-24.112234 21.025063 2.7854252 4285359461
-24.584831 21.005356 2.9194796 4285360229
-23.022715 21.098883 -0.92278767 4285623908
-23.320427 21.118607 -0.89005733 4285491295
-23.381601 21.077877 -1.0430305 4285228378
-29.758999 -18.666906 1.9435009 4280426526
-29.250681 -18.952454 2.0464158 4280033817
-28.983978 -18.824299 1.8716426 4280558108
-27.573547 -1.169616 -10.387817 4283057971
-26.891043 -2.5511525 -10.371294 4283385148
-27.478804 -2.9542868 -10.293047 4283384634
-26.502665 1.9615924 -10.483444 4283844669
-28.214527 -12.329235 -7.9786434 4282332978
-28.672688 -11.880098 -8.1425428 4282726444
-22.037403 21.950773 5.3936753 4281808690
-22.548519 21.9182 5.3713913 4282005557
-22.191971 21.738247 5.0048075 4283322432
-28.601614 -12.831117 -7.6379423 4282464809
-25.387257 20.639635 -2.1640031 4284967006
-26.444675 5.6387744 -10.170429 4285422404
-28.927898 -13.425686 -7.2105885 4282070306
-26.849697 -3.4075313 -10.31932 4283712560
-25.690447 -3.4221776 -10.42856 4284698688
-26.132805 -2.6863675 -10.431911 4282992454
-24.052372 14.413355 -7.3967352 4291879107
-23.408445 14.996605 -7.1244206 4288579205
-24.185493 15.075956 -6.9995742 4288844626
-27.2045 -1.4064982 -10.401686 4283583551
-23.67314 21.563377 4.6525478 4282597687
-24.13168 21.5937 5.0553203 4282399020
-23.782162 21.498976 4.5459404 4283650117
-24.620264 20.985918 2.6119652 4285490788
-24.77483 20.969995 2.5995643 4285360222
-24.681805 20.977856 2.5184264 4285360222
-27.125999 -1.0026581 -10.422927 4283190344
-26.740963 -1.2813053 -10.437329 4283582269
-25.049232 13.489691 -7.7197404 4286413427
-25.328999 13.877867 -7.4889469 4286742377
-26.203199 3.6846642 -10.429178 4284241225
-25.717133 3.1725087 -10.508097 4283911485
-24.102627 3.6286292 -10.582123 4284307013
-24.706642 3.4258518 -10.558586 4284502853
-24.19018 3.0114861 -10.633845 4283844153
-26.871277 -12.392814 -8.1170254 4281873960
-26.077597 -12.332001 -8.2178555 4282069031
-27.538328 -17.673134 -2.4331517 4281478949
-25.102276 21.124386 3.6281176 4284834646
-24.592527 21.211302 1.0817488 4284503624
-24.870256 20.457855 -2.4478507 4285425250
-23.337246 20.815361 -1.6942978 4285032290
-22.091557 19.915264 -3.0744905 4286675050
-21.959064 20.210331 -2.6856647 4285557349
-22.740406 20.180511 -2.7784824 4286477675
-25.140215 21.326851 4.3006411 4284242772
-25.101582 20.954124 2.6769211 4285295201
-23.164877 21.032787 -1.1464646 4285360996
-22.653309 21.049828 -1.0129962 4285426023
-25.347017 21.261353 -0.41583657 4283848788
-25.272009 21.276836 -0.11263204 4284046163
-22.963415 19.926708 -3.1080897 4286148717
-29.218477 -11.373244 -8.328577 4282463273
-25.279604 11.902026 -8.4704819 4287860887
-24.269062 12.392988 -8.3672552 4285228122
-23.917353 17.576006 -5.2543168 4286938206
-26.688648 -10.315329 -8.9968491 4282462759
-26.633223 -10.914572 -8.7731771 4283777328
-27.254076 -18.590956 1.2982481 4280426260
-26.613268 -18.601444 1.0657332 4280622876
-27.181019 -18.479811 0.75307822 4280688659
-24.755648 1.5359138 -10.665955 4284172350
-27.322084 1.7811891 -10.416323 4283781177
-27.431219 2.1845386 -10.396414 4284044606
-23.486429 21.149416 -0.77177024 4284965466
-24.125277 21.122517 -0.95108247 4284637530
-23.701328 21.098961 -1.0280309 4284965977
-26.516047 -17.665272 -2.799552 4280821270
-27.063946 -17.582882 -2.8011384 4281217063
-24.701859 21.418966 4.6211958 4283848271
-23.859257 21.029495 2.5052791 4285490787
-23.485914 21.054491 2.7546282 4285163365
-21.61183 21.177094 3.2356257 4284770411
-22.191175 21.104103 2.8094683 4284704864
-25.811127 -14.281647 -6.8587031 4280625694
-24.963364 -14.509083 -6.7553444 4281084964
-27.059387 -16.925962 -3.9192576 4281345320
-27.833092 -18.608812 1.4743624 4280097049
-28.1021 -18.656397 1.6469096 4279966496
-27.910355 -18.689808 1.767393 4279703587
-28.009493 -18.833481 2.1956844 4279706130
-28.028931 -18.796383 2.0759153 4279704603
-28.17849 -18.921169 2.1166646 4279836183
-28.282551 -18.80616 1.983816 4279900956
-28.339746 -18.938931 2.0446384 4279836183
-29.380369 -18.55621 1.6057609 4280624419
-22.314421 -13.882275 -7.6048651 4282792753
-22.885782 -13.504657 -7.8142843 4282136112
-22.833717 -13.938727 -7.4946494 4282135848
-24.32432 16.98456 -5.6636686 4287793541
-24.434771 16.301554 -6.1436806 4287006848
-24.499859 16.732689 -5.8376031 4289177496
-24.952393 16.674595 -5.8555832 4289829771
-27.590488 -14.333463 -6.6276488 4282070053
-27.120985 -14.252781 -6.75319 4281478952
-28.570374 -13.069798 -7.503202 4282070061
-28.890392 -18.250692 0.16226768 4281346326
-24.68881 21.017401 -1.3880973 4284900191
-27.222965 -18.25585 -0.48740935 4280428570
-26.493628 -18.300726 -0.61802244 4280756259
-28.764458 -18.405201 1.0891736 4280558358
-24.42333 19.564798 -3.5576105 4287397232
-19.464184 20.096437 -2.5991292 4285819233
-19.269108 19.67074 -3.2018118 4286018665
-18.549463 19.898737 -2.836391 4286082409
-26.902008 -17.440479 -3.1156213 4280692007
-26.262367 -17.437893 -3.27793 4281345048
-27.163857 -17.161972 -3.5479233 4281477407
-23.182243 7.4459028 -9.9975166 4284504632
-23.741173 7.1557865 -10.036738 4284899418
-23.182161 6.8254547 -10.169677 4284834385
-25.564161 9.8285933 -9.1800861 4287992210
-24.81806 10.080332 -9.1505947 4285821292
-25.042212 6.7967801 -10.051102 4285758071
-25.171251 6.2314882 -10.160178 4285292371
-25.30792 14.338048 -7.2538142 4286348916
-24.794621 14.757811 -7.1027575 4287727769
-29.694374 -18.543228 1.6807704 4280425499
-29.910572 -18.540451 1.7350953 4280425499
-28.815575 -18.177803 -0.3315959 4281081620
-24.39805 -11.095768 -8.9675341 4282859058
-26.527092 -12.780357 -7.9422932 4282331944
-27.22542 -12.76117 -7.8747311 4281937704
-27.547611 -12.374993 -8.0317917 4282398764
-26.272755 -1.8393745 -10.4524 4283517761
-27.866144 -18.236332 -0.28510809 4280033037
-28.167715 -18.399578 0.90137434 4280624156
-28.5382 -18.36421 0.90149379 4280295955
-28.430216 -18.435692 1.1231627 4280426523
-28.398418 -18.230816 -0.165272 4280427533
-28.312988 -18.180342 -0.44819903 4280361492
-28.316343 -18.64711 1.6202908 4280228121
-25.353331 -12.529518 -8.1619911 4282331179
-24.498251 -12.396599 -8.3222427 4281807657
-26.509706 -14.049461 -6.9889894 4281348397
-27.101501 -13.906185 -7.0781398 4281480235
-23.899975 10.50775 -9.0954247 4286014812
-23.9256 19.705383 -3.3861554 4287201381
-19.130487 18.948641 -4.0507917 4286280809
-20.031496 18.920748 -4.1302376 4286413169
-19.212494 18.577406 -4.4630451 4286476899
-24.873449 18.717888 -4.4072919 4286612602
-25.097086 -4.2726607 -10.418428 4283123005
-24.22854 -4.0779171 -10.511648 4285094733
-24.066864 -18.906635 0.77991474 4280361259
-23.866123 -18.831673 0.14103794 4280491285
-24.394913 -18.767103 0.23853946 4280427285
-25.766308 21.188684 -0.95055938 4284374360
-24.123341 21.032499 2.2126002 4285622372
-24.639832 21.043156 2.0083518 4285163361
-24.716982 21.279049 0.24795341 4284240968
-24.270943 21.247375 0.75269771 4284307018
-19.484278 21.140751 0.7132498 4283780154
-19.2796 21.137054 0.36828494 4283450675
-18.86978 21.164658 0.76450205 4283121972
-22.809704 21.249537 3.6796141 4284637790
-23.476131 21.266373 3.7637999 4284704346
-23.556593 21.216942 0.93536878 4284045137
-23.885649 21.261612 0.28627563 4284308811
-22.873606 21.204821 -0.20786381 4284834658
-23.151697 21.188307 -0.51849532 4285032283
-22.634161 21.160828 -0.47492409 4285228387
-24.375828 20.999142 2.5237839 4285491306
-22.928463 21.058172 2.671967 4284966498
-24.903221 20.959824 2.5437772 4285360222
-21.964327 21.38044 4.1748738 4284110416
-22.255558 21.28282 3.8178904 4284637527
-21.426941 21.293694 3.8052893 4284439883
-29.339018 -19.117687 2.2224507 4280164632
-29.25518 -19.215179 2.2462995 4280164632
-28.425972 -18.71022 1.7855153 4280228121
-28.562994 -18.606548 1.5459821 4280491545
-29.682051 -18.390043 1.2820613 4280295710
-28.147911 -18.724216 1.8454106 4279966496
-27.813562 -18.750963 1.9698734 4279835417
-28.10137 -19.074907 2.2234936 4279640342
-23.666529 13.889903 -7.7359152 4287594368
-23.544632 13.569806 -7.9007449 4286739818
-22.925272 13.70159 -7.9037185 4287133810
-24.265707 15.487269 -6.7213926 4288315032
-23.856571 15.424614 -6.805553 4288121979
-28.204647 -12.88001 -7.6607637 4283056941
-27.849915 -12.689532 -7.8271608 4282199338
-26.566086 -13.558464 -7.4004984 4281478693
-27.039312 -1.8844883 -10.395399 4284043328
-23.620264 12.931413 -8.1947517 4285624417
-23.41234 12.582211 -8.3784256 4285359710
-22.865742 12.89573 -8.2882214 4286021759
-23.306244 20.691372 -1.9456275 4285425252
-21.374481 19.81262 -3.1717794 4286477416
-21.604206 19.570364 -3.4808669 4286412146
-20.818892 19.63032 -3.3793769 4286543463
-27.656834 21.143393 -0.81798267 4284242259
-24.827297 14.102996 -7.4514222 4287136869
-27.48867 3.9236262 -10.292598 4283911999
-26.849705 3.5371792 -10.382436 4284438601
-27.481133 -14.11175 -6.8480864 4281479203
-19.205111 4.8309255 -10.80522 4285094487
-19.860649 4.6228428 -10.785797 4284700498
-19.529375 4.1855769 -10.869812 4283978575
-26.277672 3.0770922 -10.462507 4285028172
-23.681032 21.196884 -0.56016207 4284571734
-23.17345 13.316407 -8.0653782 4286214512
-27.71159 -13.915483 -7.0095334 4281676070
-28.373344 -15.563165 -5.3544197 4281018647
-24.369699 13.787832 -7.694273 4287469424
-24.071346 8.6041412 -9.5712595 4283651900
-22.531132 19.598606 -3.4785869 4287595910
-26.924248 1.4502223 -10.450668 4284175177
-26.983374 1.9590261 -10.439611 4284304710
-27.866693 -15.409631 -5.5769386 4281346078
-24.027725 8.0098763 -9.7390251 4284106034
-23.448046 8.4606638 -9.6567574 4284238139
-23.735312 16.282669 -6.2012711 4287597441
-24.064587 16.689175 -5.885004 4287203720
-22.549397 18.218641 -4.793076 4287137407
-28.106087 -18.285597 0.15603948 4279967757
-24.911028 -18.636406 0.020470619 4280688408
-24.457975 -18.651133 -0.26133561 4280818971
-25.086571 -18.491198 -0.51803398 4280953126
-21.147701 12.00398 -8.8658762 4290562019
-22.294918 11.946716 -8.7658424 4285688921
-21.646744 11.51292 -9.0062551 4287918613
-27.794464 -18.367836 0.58676314 4280819480
-24.935404 -18.908644 2.367198 4279903008
-24.446638 -19.008125 2.3054552 4280034086
-24.437082 -18.965952 1.8903248 4280165405
-27.443724 -18.693371 1.7857265 4280164639
-26.969519 -18.726166 2.0859945 4280491799
-26.810797 -18.679235 1.6439364 4280623128
-27.710709 -18.839514 2.2530134 4280163860
-25.418623 -18.803757 1.3610295 4280032269
-25.206257 -18.754654 0.85249639 4280099352
-23.969601 21.617662 5.0364313 4281152817
-22.625973 21.674122 4.8842287 4283388490
-20.128199 21.674988 5.0776577 4283321151
-19.695545 21.633011 4.8190994 4283584843
-19.622641 21.706032 5.0502877 4283191109
-26.1075 -11.68844 -8.5263062 4282859048
-26.516016 -11.321674 -8.6227169 4282401068
-25.165085 -16.542105 -4.6063042 4281281828
-25.141579 -16.124357 -5.1453018 4280625954
-25.839684 -16.372561 -4.7373142 4280494621
-27.705221 -18.478046 1.0432822 4280886293
-27.091919 -5.6287832 -10.133108 4283188790
-22.582487 21.142122 1.1306286 4284898904
-22.3638 21.157944 0.80361664 4285030746
-21.980415 21.117901 1.2048795 4284506206
-23.600777 21.072737 1.9615624 4285359199
-21.790522 21.129505 0.71009636 4284899673
-22.247162 21.15971 0.38781786 4285032285
-24.718426 20.984877 2.3612318 4285424734
-19.919519 21.09646 0.09891367 4284832846
-21.430849 18.723042 -4.360076 4287269507
-21.059488 18.361698 -4.7026024 4286937731
-20.743326 18.528809 -4.5518794 4287396985
-27.432255 -15.856421 -5.1688828 4281345306
-27.754616 -15.613308 -5.3818827 4281148957
-23.648067 21.0355 -1.2233183 4284770396
-21.758652 20.859999 -1.3489325 4285426532
-22.373053 20.907619 -1.3722003 4285360994
-22.213823 20.803444 -1.578099 4285689186
-26.156685 -0.93723154 -10.493212 4283055660
-25.493111 -0.39022279 -10.564262 4282335025
-26.280483 -0.14164519 -10.503878 4283188533
-22.708805 18.651253 -4.426158 4286808441
-22.313625 18.905005 -4.1862764 4286677116
-21.445072 21.135353 2.8558335 4284769630
-21.02936 21.125191 2.5981915 4285096539
-20.692337 21.181826 3.0419121 4284834397
-22.350601 21.207424 3.4784994 4284638041
-22.704937 21.333588 4.0075727 4284242512
-22.493572 21.504448 4.492074 4283913802
-23.178915 21.417774 4.2191334 4284241743
-25.462845 -1.317456 -10.549141 4283976771
-25.579321 -2.1191442 -10.511379 4284569161
-24.85207 -0.17273831 -10.632676 4283188280
-24.860531 -0.78440428 -10.612869 4282793520
-21.913435 14.753019 -7.3749266 4287070588
-21.910652 15.115036 -7.1246409 4287663510
-22.339699 15.023217 -7.1744428 4288322419
-21.44693 -13.15145 -8.1071014 4281808177
-21.720966 -13.517764 -7.8738403 4282267698
-21.037189 -13.514162 -7.9102445 4281876782
-25.884773 -13.739551 -7.2900066 4281675289
-23.256147 1.378474 -10.768616 4285885014
-23.670616 1.3487847 -10.741441 4284830794
-23.354519 0.90508008 -10.773205 4284763966
-25.37331 -18.326088 -1.0749314 4281083677
-24.658237 -18.476254 -0.8684957 4281083677
-24.92775 -18.294451 -1.4680834 4280625954
-25.145704 0.30847001 -10.61463 4282793013
-22.265474 3.1943562 -10.764415 4284307267
-22.409595 2.6941574 -10.793254 4284964677
-21.684828 2.7426133 -10.865833 4284173621
-25.208551 7.7593446 -9.7701931 4285162579
-24.624523 8.1398258 -9.6762009 4284966492
-25.118452 7.2926388 -9.9068508 4284306247
-24.533564 7.6115379 -9.8412228 4284768858
-22.177794 8.3508368 -9.8660936 4285888098
-25.214817 3.2741599 -10.53728 4284699204
-25.777435 -8.7671623 -9.569458 4283449652
-26.377804 -9.1954002 -9.3983927 4283120687
-26.153107 -11.229502 -8.7165527 4281806631
-25.209856 -10.769011 -9.017581 4281414185
-26.010248 -10.818275 -8.8962307 4281214754
-26.350018 -7.4267139 -9.8385963 4282859315
-25.794533 -10.364548 -9.0954561 4282792746
-25.156502 -10.387749 -9.1561108 4281415467
-25.460377 -9.9711914 -9.2658043 4282731055
-21.932379 -4.0865617 -10.768511 4282662706
-21.344728 -3.3139768 -10.908461 4282990898
-22.218895 -3.4968646 -10.784808 4283187503
-23.426487 20.355776 -2.556025 4285821547
-25.02968 -2.3247104 -10.566591 4284045636
-25.513599 -2.6976426 -10.490826 4283844936
-25.093369 -2.9099369 -10.521262 4284565825
-25.067444 -1.7787113 -10.579196 4284632131
-26.92293 -31.991302 14.691242 4278190080
-22.553741 21.105324 1.5211501 4284636249
-22.612762 21.068092 1.9416671 4284834909
-22.501955 21.070354 2.4929514 4284638557
-22.703007 21.049057 2.244318 4284834909
-21.716801 21.134308 0.26880908 4285227871
-21.300692 21.121998 0.20246887 4285162335
-21.261599 21.123077 0.56046319 4284638041
-26.087479 -17.642839 -2.9690676 4280821274
-25.753225 -17.618931 -3.0776823 4280822833
-23.313904 21.521202 4.4626179 4283452231
-23.405741 21.486879 4.3934364 4284044620
-20.412498 21.400595 4.1112309 4284767579
-21.173447 21.441927 4.3260484 4284308307
-25.380787 -13.075718 -7.8199177 4281545766
-25.473455 -12.841349 -7.9577227 4282333224
-25.771206 -13.028732 -7.828001 4281871908
-24.677429 3.9776998 -10.518472 4284569157
-25.064186 4.3795171 -10.447273 4284175687
-24.825762 -1.3506012 -10.609383 4283912250
-25.13105 -8.4029312 -9.7235184 4282660138
-25.833796 -8.0251617 -9.7470732 4282203697
-21.906969 17.124855 -5.6870136 4287071353
-22.36908 17.618269 -5.2779956 4286610286
-22.742819 17.001749 -5.7305737 4287399543
-21.234928 18.18136 -4.8485222 4286742412
-21.847715 18.451378 -4.5969467 4288123026
-22.304731 15.278682 -6.9949551 4289251824
-22.741117 15.32189 -6.9574966 4288456352
-27.737806 -18.800812 2.1542068 4279835417
-27.465036 -18.822239 2.2652473 4280295450
-23.65276 -12.556862 -8.3012571 4281873697
-23.68648 -12.160192 -8.5110378 4282201139
-22.665659 20.747807 -1.7774668 4285492322
-21.791315 19.178261 -3.9109085 4287267968
-20.862446 19.254827 -3.8058827 4287929994
-23.115076 11.733337 -8.7680998 4285358158
-22.884678 12.364628 -8.5314837 4285950815
-23.120481 19.498976 -3.6007979 4287267968
-23.682873 19.522984 -3.5889153 4287398008
-21.956791 20.689066 -1.8047123 4285492582
-22.198996 20.971359 -1.1319299 4285098338
-23.327461 21.223848 -0.3086288 4284507486
-23.596159 9.7552719 -9.3277283 4286353795
-23.941906 7.5323076 -9.905035 4284966973
-23.507668 7.5600195 -9.9343929 4283844673
-23.541019 7.9001374 -9.8102665 4283712807
-23.283092 17.346931 -5.4390802 4287398788
-26.293739 -15.879028 -5.2755246 4281609507
-24.692638 15.324533 -6.7793217 4291739046
-24.625324 15.782598 -6.4889011 4290687608
-20.512684 21.277613 3.5826032 4284702814
-18.04435 20.677328 -1.3263516 4283384371
-17.779158 20.827339 -0.97811389 4282790179
-18.424522 20.832863 -0.87581468 4283846454
-25.493391 -5.9450722 -10.201684 4284567100
-24.457657 0.39072144 -10.684169 4283189049
-24.440266 -1.8108702 -10.63836 4282793268
-22.556601 15.966537 -6.5047517 4287730043
-22.345884 15.562258 -6.7977648 4290616997
-23.918915 17.119741 -5.592433 4287794820
-27.197359 -15.532198 -5.5373883 4281084966
-24.763479 -3.4638054 -10.510926 4283318584
-23.04113 16.409061 -6.1621017 4287861113
-23.471222 16.805563 -5.8342361 4287795829
-19.599911 14.127232 -7.926785 4288916121
-19.985243 14.455671 -7.6823578 4289106221
-20.379528 14.072545 -7.8881512 4288714125
-23.654509 12.084723 -8.5674944 4285688415
-17.916874 21.377943 3.0069451 4282528527
-18.62076 21.253401 2.5057218 4283121964
-17.865114 21.272423 2.2795606 4282332194
-21.769192 21.727774 4.9980335 4282796606
-21.554523 21.869038 5.2615976 4282202418
-22.051046 21.898592 5.316288 4281808690
-21.181946 21.633934 4.8143644 4283257674
-21.79681 21.54439 4.6342983 4283848271
-22.340343 16.618465 -6.0457067 4286937202
-24.763098 -18.768393 0.57173657 4280296470
-25.86758 -13.312404 -7.6171827 4281676329
-23.506451 4.5890293 -10.537569 4284568909
-23.205143 4.8526077 -10.519035 4284965194
-23.94171 5.0057354 -10.461399 4285486411
-25.54747 -16.705976 -4.3470278 4281084442
-26.246128 -17.241179 -3.5878496 4280886816
-24.860977 -13.115971 -7.8366394 4282135848
-15.426059 21.224516 0.67902637 4282329633
-15.775589 21.17041 0.025225282 4282396185
-14.938888 21.231934 0.040357709 4282461728
-22.673208 21.186394 0.53538322 4284506971
-24.404064 7.1505156 -9.9925442 4288648525
-21.806269 21.096605 2.5451167 4284639069
-22.187561 21.079113 2.2158716 4284310874
-21.910906 21.094585 1.7716539 4284441436
-23.270979 21.231979 0.017000675 4285228384
-23.812822 21.243084 -0.23474669 4284439121
-24.036499 15.826231 -6.5058289 4287203733
-26.160034 -18.214373 -1.1614025 4280625687
-25.689737 -18.158007 -1.6285653 4280755220
-22.731144 21.197239 0.17910051 4284900712
-22.246965 21.160566 -0.075314522 4285163876
-24.200096 6.5506825 -10.168016 4285425763
-25.239824 2.6616433 -10.575996 4283976003
-24.274046 4.0892448 -10.536881 4284766037
-23.807821 4.0334287 -10.567215 4284635719
-24.541853 4.388382 -10.485914 4284569668
-25.662273 -9.4050026 -9.4116554 4283384892
-17.31744 21.497465 3.3891716 4282463267
-17.754862 21.503094 3.7299397 4283844159
-20.752806 21.127407 0.86579037 4284964698
-20.88868 21.119699 0.367805 4284768343
-24.732777 2.8130302 -10.607244 4283845943
-24.125801 4.6099463 -10.488981 4284175430
-23.22566 7.7966528 -9.8826675 4284306234
-22.828203 7.9393301 -9.8912983 4284109645
-23.175011 11.004675 -9.0208035 4286543723
-20.308697 20.198858 -2.5580406 4286018672
-20.616898 20.078659 -2.7715023 4285624935
-20.172771 19.854374 -3.0358016 4285624683
-21.639019 18.023462 -4.9796057 4286812295
-25.447098 -15.258219 -6.053915 4281411114
-25.675579 -14.84834 -6.3933258 4280822312
-19.173422 3.7864213 -10.947721 4283780924
-19.730747 3.4676895 -10.94593 4284698437
-19.029093 3.2967172 -11.029309 4283451965
-20.838356 20.423323 -2.243922 4285689697
-20.916592 20.257959 -2.5320675 4285690217
-23.577579 -1.4456778 -10.756303 4283055406
-22.93107 -1.8918746 -10.814943 4283383087
-22.525427 -1.1994219 -10.881717 4282399793
-24.168753 -11.927038 -8.6051769 4281546538
-26.168545 -9.8116913 -9.231699 4282794035
-24.885618 21.062168 3.3540936 4285031510
-23.30756 19.70718 -3.3748651 4286478957
-22.744337 19.272282 -3.8372867 4287726462
-24.689125 4.7767153 -10.431042 4284372299
-21.185404 17.010054 -5.8246765 4286084198
-20.735554 16.77766 -6.0289669 4287398273
-20.267239 17.135807 -5.7702932 4286610026
-24.00349 13.575512 -7.8495369 4288187025
-23.057335 10.219347 -9.2614489 4287593607
-22.333641 10.572901 -9.2527122 4287471515
-23.857853 13.283578 -8.0078783 4286740855
-22.575377 14.757693 -7.3311458 4289698961
-22.936377 14.268326 -7.5977898 4287463547
-21.857922 14.303594 -7.6592436 4292994769
-20.513723 11.407606 -9.1802101 4286479725
-19.641987 10.920921 -9.4541035 4286214470
-19.019571 11.378314 -9.3567028 4286411873
-23.548555 6.0500207 -10.316141 4285097300
-20.119743 21.161427 2.6562622 4284702812
-20.235117 21.134186 1.2505701 4284636243
-20.395445 21.115871 1.6516173 4284898138
-20.785852 21.118954 1.3127122 4284965465
-21.977959 21.109858 -0.43611073 4285228901
-21.614061 21.120298 -0.074468613 4285097060
-23.161392 21.230186 0.46789861 4284965212
-19.638668 20.810766 -1.0512526 4285163096
-19.028549 20.850578 -0.86912155 4284698671
-19.684015 20.978416 -0.5077045 4284898646
-17.483416 20.082481 -2.4983504 4286016342
-17.198845 19.883356 -2.7656813 4286344022
-16.974398 20.118183 -2.4054492 4285355075
-22.974854 9.5203695 -9.4404144 4285880645
-22.425274 11.305842 -9.0032911 4286540597
-19.817513 21.518888 4.4537163 4284045388
-19.234751 21.633812 4.6869192 4283584587
-26.099974 -18.731468 1.5357473 4280230168
-23.642271 -18.003649 -2.647846 4281018910
-24.124231 -17.942484 -2.7669172 4280625444
-24.037447 -18.060802 -2.5112295 4281282851
-25.981871 -17.773083 -2.715121 4280754448
-25.718594 -17.771778 -2.8050442 4280493076
-24.687355 -16.749708 -4.3916426 4280689696
-24.563303 -16.438248 -4.8379741 4281217056
-20.932121 5.1638155 -10.632166 4285029969
-20.202566 5.5674114 -10.615552 4284702032
-20.68911 6.0407009 -10.505182 4285162843
-23.95435 -18.670496 -0.5386157 4280295965
-23.920319 -19.213495 2.6857631 4280098067
-23.653217 -19.240196 2.6566758 4279639570
-23.71701 -19.181082 2.4807634 4279443473
-22.783796 -8.7334061 -9.8654556 4283188276
-22.135878 -8.7575941 -9.9271879 4282531382
-22.690388 -8.3850174 -9.9772577 4283714627
-24.259296 -1.0658307 -10.681597 4282922536
-20.697683 12.552235 -8.6714163 4289303414
-19.572491 12.458162 -8.834795 4287859068
-19.73069 12.864306 -8.6181669 4287002467
-23.836796 -8.4904833 -9.8255053 4283125303
-24.316418 -8.2044706 -9.8510628 4281678899
-24.541676 -8.6898727 -9.7102232 4281808172
-25.145775 -9.0185881 -9.57201 4282135848
-25.942524 -17.984997 -2.1592772 4280362521
-25.630688 -17.835392 -2.6820478 4280493076
