# .PCD v0.7 - Point Cloud Data file format
VERSION 0.7
FIELDS x y z rgba
SIZE 4 4 4 4
TYPE F F F U
COUNT 1 1 1 1
WIDTH 1163
HEIGHT 1
VIEWPOINT 0 0 0 1 0 0 0
POINTS 1163
DATA ascii
109.91035 2.8726597 3.028965 4281150247
111.46094 5.2481475 3.4048691 4280953118
112.02254 3.6056001 3.0081863 4280692011
110.15474 2.7553833 3.0969448 4280888094
110.89002 1.2168016 3.0861359 4280886561
110.5444 1.1919827 3.1090164 4280690211
110.62727 1.4711275 3.1690903 4280428320
111.503 6.867775 3.2750416 4280098832
111.35654 6.9613066 3.2921963 4280099090
111.5113 -2.750525 3.5918541 4281282346
111.87505 -2.7798138 3.6223278 4281020200
112.78825 -4.5304546 3.2327652 4280887589
112.45037 -7.2940049 2.8705444 4280757286
113.03907 -6.9756265 2.9260921 4281084194
111.99111 -8.2857513 2.7590866 4280494121
112.40288 -9.698576 2.5470142 4281018404
111.90556 -17.943245 3.1411514 4280427554
112.13835 -17.91 3.0882721 4280690470
112.31538 -18.507723 3.1079617 4279704351
112.42256 -18.393196 3.1071129 4280033313
111.7997 -17.422596 2.7621593 4280362017
111.76657 -17.979872 3.1568127 4280361757
111.65974 -1.0816169 3.5190392 4280098581
112.13427 -0.82031345 3.4879665 4279968801
112.39915 -0.38240004 3.414772 4279904031
112.69617 -0.58983135 3.5027943 4280099872
112.0966 -16.440113 2.3249588 4280165672
112.76206 -15.17858 2.1900425 4280035360
111.31169 6.2686958 3.5028934 4280495136
111.51414 5.9953985 3.4980679 4280889121
113.08112 6.9904785 2.9946804 4280823075
112.82732 6.8153582 3.0532322 4280757289
112.85485 7.0962248 2.9519367 4280754976
111.69133 17.762547 3.3840981 4280623904
112.11476 17.755966 3.4098167 4280426269
111.86183 17.370445 3.4627419 4280491034
111.26294 -0.052668571 3.1771049 4280625434
109.43422 0.57950258 3.0953484 4280887846
111.06171 -16.061607 2.4999237 4280296739
109.94437 20.454992 3.6736584 4280623903
110.80327 -16.038311 2.5851212 4280623387
110.70064 -16.199333 2.7791195 4280427801
111.62813 -16.830315 2.573843 4280558355
111.46759 -16.660463 2.6319656 4280623892
111.65257 -16.58135 2.4918842 4280754203
108.19287 -15.995958 2.3673229 4280691237
110.93095 -15.330024 2.2271824 4280691231
110.54895 -15.226441 2.2595558 4280691240
111.59343 -15.902392 2.2783184 4280625179
111.53249 -16.091932 2.3542004 4280756258
111.08592 7.526053 3.2652473 4280625447
110.57547 11.954119 3.4087868 4280821537
114.30715 9.470849 3.6472988 4280884765
114.25018 9.2731133 3.5860252 4280361762
114.00222 9.4737835 3.5982246 4280757291
108.03786 20.072563 3.9126968 4280098075
108.65874 20.345667 3.9244938 4279900957
109.9536 4.322516 3.2402763 4281149991
111.03279 4.0201077 3.0168266 4280819990
111.89665 0.4070406 3.1263924 4280559641
112.04075 0.091394424 3.2390575 4280362268
111.69155 0.18853521 3.1262417 4280427799
112.7464 3.0263343 3.1664467 4280689955
112.79433 2.8325591 3.2216778 4280622111
112.50596 2.8373849 3.1576767 4280493089
112.93198 2.9779873 3.2250004 4280558115
113.01716 -1.5256033 3.7793503 4280559141
112.75726 -1.5090613 3.7081833 4280690472
113.09673 -1.2885742 3.7434273 4280559657
109.66381 -0.5301342 3.6034794 4280100898
111.31389 0.27396584 3.0205803 4280755998
111.52817 -0.01190424 3.1677742 4280624147
115.00581 -12.377478 2.2353783 4280756514
114.30112 -12.65657 2.2572422 4280625439
113.68504 -5.283711 3.1519947 4280364068
114.12379 -4.851162 3.2168026 4281085482
112.75903 -4.9986 3.174593 4281346847
110.39836 3.9674923 3.0045986 4280755486
111.36224 2.3364096 3.2347965 4279967525
111.57925 2.2626977 3.2513103 4280229930
112.01931 2.0675182 3.258152 4280558362
111.69143 1.8668113 3.231554 4280624933
111.75421 2.1383023 3.2550392 4280558623
112.08126 -15.654918 2.1799068 4280887587
111.96415 -15.415461 2.1476517 4280624929
110.82687 13.352341 3.6095181 4280755484
112.30313 15.556276 3.4934597 4281083170
112.38114 15.101328 3.5622482 4280558613
111.78596 15.290606 3.5571079 4280886552
111.40835 14.887514 3.6439095 4280559135
111.52041 14.639539 3.656126 4280558370
111.17934 14.564217 3.6843224 4280624411
110.7142 20.933662 3.9297104 4280623126
110.97818 21.067064 4.0109901 4280492059
110.94502 20.862572 3.9216614 4280623129
114.04572 -11.287896 2.3489075 4280754704
112.03468 1.0614367 3.1678181 4280232482
113.67622 -0.46582079 3.651947 4280493071
113.17315 -0.29289579 3.5257893 4280297248
113.63409 0.10374641 3.5503769 4279772960
110.95682 0.46865034 2.9381428 4280692271
110.65607 0.60534716 2.9708786 4280497969
113.75634 -8.8248863 2.7824402 4280820250
113.27627 -9.3280315 2.7031441 4280821279
111.39352 14.42225 3.6756496 4280754715
110.6292 -16.391949 3.0036449 4280493345
110.56322 -15.679722 2.3985653 4280428837
109.98815 18.85655 3.5932617 4281147928
114.80578 -2.8013482 3.5011082 4280100641
114.873 -3.040535 3.3912411 4280560176
114.63562 -3.0658531 3.4668026 4280559651
112.23881 -8.8412571 2.6681843 4280362783
111.52835 9.2962389 3.0752964 4280492828
111.02956 9.1995602 3.1672802 4279837209
110.54721 9.6824474 3.1835709 4280624928
110.60663 9.4820499 3.203804 4280951835
112.32868 -17.777578 2.6798191 4280427557
112.18071 -17.72937 2.7565079 4280427557
113.50453 -18.189419 2.3687286 4280165660
113.31487 -18.116699 2.3756981 4280165660
113.50145 -18.182743 2.1721458 4280296731
111.70553 18.099821 3.3220654 4280756510
111.5418 18.253944 3.3278255 4280951582
111.09824 12.980553 3.4944801 4280755748
111.54012 14.180807 3.6265163 4280754709
111.6436 14.394898 3.6341934 4280426260
112.01266 14.422918 3.5841331 4280163357
110.80992 3.3268321 2.9235134 4281282606
110.88368 3.5752573 2.869257 4280624923
112.42829 -18.83036 3.4060478 4279638803
111.52094 0.5542407 3.0039654 4280756499
111.57066 0.84577894 3.0222549 4280820506
111.72552 0.62857389 3.0455151 4280887580
111.93188 -1.3841553 3.5340366 4280296987
111.89273 -1.9016814 3.5791187 4279838753
111.80917 -0.16220999 3.2854385 4280690714
112.18685 -0.16248512 3.3349781 4280429087
112.18764 -2.2398591 3.6683407 4280494633
112.37891 -2.0239677 3.6930332 4280232483
112.33203 -2.2472501 3.6999226 4280494633
110.62404 4.3844099 3.1596909 4280690210
111.05049 3.3678739 2.9003105 4280889383
112.53189 -2.927197 3.6340523 4280953392
111.93912 6.7193623 3.2031765 4281213202
111.84471 7.0245104 3.117363 4281606169
112.14982 9.6973372 3.1173687 4280230697
112.0195 9.802721 3.1204262 4280230697
112.20398 9.8268194 3.1534786 4280361502
112.59378 5.5391283 3.4296341 4280494373
112.18172 5.6444273 3.4289513 4280231466
112.36447 5.872437 3.425703 4280559409
112.18652 3.5894234 3.0335445 4280692011
112.14595 3.7157972 3.06493 4280692011
113.71613 5.7804613 3.4432011 4280034071
113.97077 5.962069 3.4265804 4279443231
114.189 5.6254263 3.4646473 4280428066
112.92867 13.709406 3.2821407 4280558627
112.85011 13.458689 3.2438107 4280492326
112.22337 14.127281 3.4919567 4281345819
112.20559 13.911972 3.418293 4280822564
111.82594 13.939634 3.5172119 4280756516
112.82139 10.167136 3.317152 4280688668
113.18095 10.352702 3.4170303 4280295962
113.14764 9.9515076 3.3962994 4280754203
112.4901 -1.0541039 3.5573864 4280625188
111.83105 20.355482 3.8936825 4280360215
111.67767 20.447708 3.9230919 4280360215
111.95313 20.574482 3.9694099 4280359712
110.66837 10.561794 3.2883511 4280756001
111.5294 10.40955 3.2107315 4280361755
111.53472 10.7729 3.3094673 4280229918
111.30401 -16.096748 2.4288235 4280559657
110.62562 11.44114 3.4394073 4280229911
110.23104 11.406908 3.4337311 4280163356
110.39727 11.675597 3.4173813 4280230686
112.13033 7.4663477 3.0073586 4280295713
112.32737 7.1944971 2.9833374 4281346092
112.00725 7.2184668 3.0338993 4281931558
110.33633 12.842123 3.4909973 4280821278
112.41045 -16.252239 2.2607975 4280362791
115.78313 -14.469446 2.2544746 4280821796
115.39805 -14.397763 2.3061581 4280626212
115.54566 -13.959668 2.2973671 4280560153
113.93682 13.506466 3.2737637 4280426270
114.15941 13.802327 3.3164387 4280493075
114.27332 13.504574 3.3243904 4280426544
111.08072 11.070797 3.387188 4280690718
112.14096 17.095615 3.5090675 4279703058
112.21259 16.609222 3.4731388 4280100114
114.09695 16.449883 3.3350639 4280425745
114.58806 16.26313 3.2656384 4279967521
114.11465 15.886808 3.3502655 4280425764
112.55085 13.296095 3.2536392 4281409818
110.74341 11.716862 3.437273 4280230694
111.47387 13.713066 3.5475807 4280824607
111.44737 13.937431 3.6136112 4280755993
109.60654 2.8883021 2.9492779 4281281584
111.75473 4.0682969 3.1186199 4279771680
110.42669 3.4764602 2.8867626 4280822058
110.10499 3.5138636 2.8971004 4280559398
111.91461 5.4365559 3.3950348 4280559649
111.75618 5.7371502 3.4519539 4280494887
111.25432 19.915192 3.7422295 4280688404
111.32792 19.618288 3.60536 4280428565
111.33613 20.832287 3.9755802 4280228375
111.26842 20.663834 3.9195156 4279834383
111.12885 20.758675 3.924427 4280424985
111.22228 5.8931332 3.5103359 4281086003
111.43296 6.7792416 3.340292 4280098832
110.56842 4.643374 3.2781963 4280559659
113.52011 6.0386248 3.3929596 4279574299
113.38869 6.3441801 3.2863503 4279969052
113.70001 6.1983767 3.3645668 4279705887
111.10012 1.0100532 3.01124 4280755740
111.13464 0.71455002 2.9584599 4280822047
111.6847 2.5811319 3.2141857 4280297261
111.51234 2.6784077 3.1764336 4280233512
111.69756 2.7677455 3.1516399 4280101668
115.00368 -13.112297 2.2537041 4280953894
112.31537 14.347994 3.5346603 4280755215
112.48579 14.53356 3.5525303 4280165146
112.66803 14.443091 3.5150719 4280230940
110.46428 19.321316 3.6499634 4280754199
112.8027 20.339697 3.7950592 4280033304
113.12381 20.433765 3.7739124 4280491799
113.01714 20.246527 3.685791 4280756504
114.30643 -4.5178208 3.2736206 4280823078
110.42255 2.6413035 3.1377258 4280625443
114.41705 1.0732832 3.4749374 4280493613
114.67402 0.91951275 3.505373 4280624421
114.26498 0.75466585 3.4939671 4280034082
113.06085 -16.558794 2.2519531 4279902498
112.7733 -16.590057 2.2579117 4280295969
110.30693 1.6166081 3.2080212 4280101153
112.61884 0.50803232 3.3154125 4280100636
112.307 0.25019932 3.2591324 4280034590
111.18573 6.960001 3.35079 4280099090
111.29285 6.687336 3.4146214 4279968272
110.76682 13.77336 3.7102032 4280034330
111.78397 0.82906055 3.0753174 4280886561
111.7094 1.1356487 3.0985985 4280886046
111.09144 -0.735466 3.5701714 4280295450
111.39972 -0.65770578 3.4993382 4280034076
113.14288 -17.990808 2.1211758 4280559396
112.86569 -17.952248 2.2545013 4280492573
112.81183 -17.773466 2.1372795 4280558107
112.20677 -17.58699 2.3951836 4280296486
112.2012 -17.693096 2.5763111 4280296994
112.42891 -17.834665 2.8034878 4280559398
112.5484 -17.894585 2.7339687 4280559398
112.55947 -17.929825 2.91572 4280559398
111.47224 18.007551 3.3602219 4280887328
111.05543 5.7559052 3.5159111 4281083937
112.07819 6.3100481 3.351944 4280953893
113.55758 9.8046188 3.5298977 4280229920
113.44035 9.9751024 3.4820709 4280557594
113.73096 9.8679609 3.5690403 4280229920
110.90147 9.5898151 3.1285992 4280688917
110.68496 9.6799707 3.1548939 4280886813
111.69566 6.1843038 3.4818268 4281216545
111.94548 5.9338508 3.4653664 4280757042
111.94807 11.22563 3.3621407 4280427812
112.16517 12.058036 3.3529224 4280164120
112.57548 11.509995 3.3625126 4279902998
111.88694 2.8591127 3.1049957 4280231712
111.65416 2.9535935 3.0736732 4280429083
113.25436 -2.0416002 3.8090076 4280168737
113.38189 -2.2152362 3.7807865 4280299564
112.58028 -2.0505071 3.7383289 4280625447
113.51004 -3.6249471 3.4094448 4280559140
113.85949 -9.7865944 2.6810341 4280560418
114.31464 -9.4637051 2.7433949 4280884767
114.1818 -9.9128799 2.6533852 4281085475
114.43285 -11.790335 2.2851105 4281215534
113.83851 -12.070917 2.2548542 4280625190
112.23968 20.007351 3.6791325 4280428314
112.27262 20.248203 3.8129425 4280756509
112.51836 20.192423 3.7497425 4280493340
112.74748 -12.232281 2.2592678 4280756508
111.17622 20.955822 3.9883652 4280557600
111.22134 21.170139 4.0854778 4280623397
115.06444 -5.6460986 3.1726227 4280625964
114.41736 -5.4291544 3.1738014 4281149991
114.78224 -4.9693942 3.240696 4281150768
114.67007 -6.0187283 3.131031 4280952360
114.40508 -6.3553119 3.0764236 4280821026
114.04688 -5.9990282 3.1002045 4280755737
112.68387 -17.139927 2.1897793 4280164374
112.88448 -17.495173 2.0855827 4280427804
112.55232 -17.333113 2.1603546 4280231194
111.77469 20.111433 3.7870808 4280427286
111.94979 20.272896 3.8539257 4280689951
111.43082 18.429474 3.3411121 4280491291
112.29945 0.035746574 3.2972317 4280100896
112.43655 0.079580784 3.3138695 4280035107
112.46835 -0.083467484 3.3551407 4280035107
112.24845 2.4597943 3.2333164 4280164901
112.58992 4.8339148 3.3360481 4280493859
112.56487 4.367794 3.2560253 4280362273
112.54399 -8.6636686 2.7203541 4280296986
113.26392 -7.6232233 2.8451576 4281085222
112.76294 -17.999928 2.8842201 4280165664
112.67959 -17.950905 2.744751 4280165664
114.17809 7.5540323 2.9875507 4280559906
113.8797 7.7425423 3.002655 4280363042
114.09563 7.9155879 3.0692673 4280493855
111.66318 10.109221 3.1399689 4280689949
114.66463 11.392641 3.4093704 4280100129
114.63875 11.528119 3.4581203 4279903260
114.83926 11.537668 3.4334393 4280361755
112.61539 14.273785 3.4755726 4280756504
117.56664 -5.0878806 3.132719 4280362534
117.15068 -5.5134954 3.1140709 4279971118
116.84119 -5.0688577 3.1828098 4280166174
113.72258 9.6470184 3.565237 4280362016
113.74524 9.4106693 3.520216 4280493861
113.48435 9.5260611 3.4671497 4280756255
112.50535 6.4167747 3.2288437 4280822564
112.25764 6.58109 3.1965866 4281019695
112.50856 6.6879559 3.1128635 4280758575
110.68219 3.4050958 2.8925457 4281019430
110.36689 3.2996278 2.9320545 4281020204
110.97247 3.9119806 2.9632359 4280754709
111.41673 3.5019467 2.9006672 4280757292
111.48306 3.2602768 2.9367065 4280952615
113.21607 -6.085557 3.0471554 4280886302
112.99699 -5.4067845 3.1183701 4280953646
111.98772 1.5475626 3.2176094 4280362788
110.66514 1.7792482 3.2231903 4280427295
112.70143 3.442493 3.0958328 4280689707
112.97137 3.7186205 3.1549015 4279970077
113.16175 3.5408347 3.2023716 4279838237
112.39697 21.530457 3.905405 4280422928
112.08502 21.552269 3.9847565 4280557083
112.18937 21.683693 3.9026394 4280557078
113.16224 8.8761787 3.1759567 4280756777
113.40526 8.6933918 3.1873226 4280822305
113.22684 8.5789614 3.1561985 4280757033
112.87945 7.8053646 3.0086975 4279836442
112.64442 7.8744316 3.0386105 4280032278
112.88414 8.040719 3.0771351 4279835673
113.04469 0.19246817 3.4318466 4279970848
113.06646 0.6590457 3.3878174 4279771425
113.40429 0.50576639 3.4475498 4279772453
112.84085 13.188681 3.226141 4280951070
113.11163 13.339559 3.2234764 4280426268
113.10076 12.997835 3.2217007 4280229649
112.16682 21.857281 3.8595448 4280624151
112.28442 21.761993 3.8504124 4280624151
112.65881 -10.621044 2.4053898 4280820770
114.72772 -11.117068 2.4086571 4280296474
114.61736 -11.506775 2.3376503 4281150757
113.0601 -17.232111 2.1390629 4280098321
111.36007 18.705471 3.3714161 4280490524
111.58757 18.809139 3.3149261 4280033309
111.49424 18.654654 3.3192616 4280033309
112.90159 19.078091 3.0888901 4281147931
113.11479 19.294432 3.1178417 4281082402
113.25166 19.200314 3.1033516 4281345820
113.42075 -9.7427931 2.6832676 4280559128
112.20061 -10.673788 2.3537579 4281085217
111.12758 10.600849 3.2657318 4280428317
113.60535 -17.115076 2.1813297 4280230185
113.55983 -17.362009 2.1131287 4280031775
112.92852 -18.114685 3.0059433 4280230940
111.46985 15.78273 3.537529 4280886553
113.59624 7.8612185 3.0187244 4280362787
113.72472 8.0225048 3.0674763 4280558368
111.76208 -17.375877 2.7867241 4280362017
111.76775 -16.367662 2.3920593 4280623897
111.48044 -16.303547 2.4571991 4280820259
112.28991 -17.390779 2.2509899 4280165406
112.5793 -17.541037 2.1371098 4280362015
111.22151 5.6535869 3.4925518 4281083937
113.0579 6.823195 3.0615788 4280691750
111.53214 5.6980028 3.4602375 4280560163
111.40388 5.6320915 3.470665 4280560674
112.60753 7.2080088 2.9468803 4280755229
112.86214 7.3896136 2.9302368 4280492317
112.03704 18.6469 3.1757393 4280626727
111.83518 18.746151 3.2194061 4280428066
112.07355 18.889515 3.1732273 4280427296
111.26391 14.205679 3.6856003 4280819994
111.98786 14.571098 3.602272 4280163357
110.89384 -0.20841932 3.3113728 4280560421
111.84245 13.724646 3.4547386 4280559910
111.27139 13.424866 3.5414543 4280951843
111.44069 13.206541 3.4668159 4280886555
112.39912 9.0858288 3.0947437 4281083683
113.56979 -14.093761 2.3038025 4280363557
115.13073 -17.846895 2.1225224 4280624417
114.97575 -17.783817 2.1397991 4280887076
115.14789 -17.759583 2.1659222 4280755753
111.69801 7.2821321 3.0948067 4280033561
110.72997 20.738588 3.8689156 4280623129
111.55507 20.169689 3.8326492 4280229134
111.54361 19.870266 3.6883717 4280623631
112.70216 -9.3616762 2.6127853 4280559651
112.21846 -8.5956755 2.7236423 4279904033
113.61662 -7.0943503 2.9206924 4281018916
114.11119 -7.1274261 2.9347401 4280756264
113.08064 -0.7855072 3.608675 4280296477
113.53994 -0.84777975 3.713829 4280427556
110.56825 -0.56619072 3.5952625 4280165665
110.3821 -0.47153234 3.5820675 4280232744
112.64334 17.372372 3.5441895 4279638547
112.81104 17.558655 3.5524883 4279900429
112.84505 17.378448 3.5605946 4279702285
112.40399 17.498161 3.4962482 4279966232
112.48748 17.428957 3.5195732 4279638547
112.33606 17.323492 3.5127487 4279900695
112.99014 18.141697 3.3894253 4280557081
113.02677 18.278973 3.3268795 4280952093
112.80511 -16.927414 2.2235737 4280164121
112.46712 -16.753954 2.2800217 4280164641
112.93978 -18.01181 2.3957653 4280492573
113.09689 -18.0333 2.2455997 4280230163
112.79044 -17.982529 2.5756035 4280165664
112.70058 -17.944767 2.4475594 4280361766
111.44749 21.254879 4.1321449 4280885533
111.40543 21.029886 4.0437565 4280557342
111.99644 -0.45704651 3.4083271 4280165916
111.64502 -0.47046661 3.4128475 4280231702
113.6321 3.0095553 3.394186 4280296992
113.36932 2.8301086 3.3820438 4280428846
113.29883 3.1974792 3.2836895 4280298016
111.34811 18.91254 3.4111824 4280690723
111.16167 18.741518 3.4510078 4280887333
115.04108 -6.7498994 3.0337772 4280690464
114.73466 -6.5328255 3.0637264 4281804323
115.16427 -6.2587318 3.0983849 4280493603
111.75506 21.612011 4.0824738 4280491801
111.85825 3.1817875 2.9602203 4280557604
112.24063 3.2425599 3.0026188 4280492074
111.57483 2.4247556 3.2334805 4280229930
111.4995 2.534374 3.2108917 4280232495
112.11883 -2.4635925 3.670969 4280823081
111.82735 -2.490664 3.6262779 4280953897
113.40782 -1.3128695 3.810009 4280493867
113.76186 -1.1096816 3.8190117 4280953129
113.75418 -1.3931141 3.8415318 4280821546
111.64957 18.624193 3.2730827 4280493090
113.90271 -4.4510436 3.2572536 4280693025
111.39578 11.212618 3.3921928 4280821277
113.63966 13.517199 3.2543411 4280557836
113.66884 13.206955 3.2540379 4280426260
113.38673 13.259409 3.2230663 4280427032
110.4651 18.894032 3.5967693 4281215793
111.55442 18.99584 3.348753 4280230174
111.65974 19.160147 3.3521652 4280361250
111.80363 18.962002 3.2653675 4280296216
111.13695 3.9548237 3.0033169 4280688913
112.33577 13.044378 3.2850666 4280624403
112.61555 13.06785 3.2494621 4280887061
112.53439 12.801674 3.2732239 4280296217
113.90614 -0.75628471 3.7422867 4280427291
112.66647 -1.7758193 3.7346172 4280428585
112.93332 -1.7910542 3.7935238 4280166687
111.92139 10.470902 3.2504616 4280098578
112.56544 10.698409 3.3356209 4279048467
113.127 11.155732 3.3988495 4279310099
112.00616 9.1233196 3.0731449 4280952610
113.48351 9.6938801 3.5008564 4280623646
113.21728 9.6628027 3.3966103 4280885019
110.87444 10.855762 3.3459816 4280493858
115.04895 -14.661411 2.3016491 4280690972
114.75359 -15.261965 2.2670383 4280823596
114.45808 -14.443702 2.3182507 4280623902
112.66166 7.639524 2.9744034 4280425996
112.47274 7.4328709 2.9601727 4280951582
111.49626 8.8064184 3.1517487 4280690736
112.49837 17.983568 3.3810387 4280493855
112.29738 19.704823 3.4838257 4281084440
111.89023 19.838821 3.6193256 4280624404
112.44383 17.306547 3.522707 4279900695
112.0883 18.363512 3.2233009 4280757293
111.91924 18.243446 3.2620468 4280560167
111.81416 0.67943621 3.0763721 4280887580
111.1423 13.96055 3.680685 4280623898
113.69369 14.228359 3.4175282 4280624679
113.80258 14.007235 3.3493195 4280689185
113.47997 13.995571 3.3458004 4281017376
114.22401 17.514536 3.3895912 4280887575
114.31562 17.31143 3.3380184 4281214748
114.03252 17.334997 3.4093456 4280887575
113.33701 -12.341183 2.2616234 4280298532
116.35365 -10.687606 2.5545712 4281018671
115.88905 -11.116409 2.4348431 4280428821
115.78463 -10.538427 2.5598583 4280559656
114.99576 -11.701274 2.309885 4280494888
115.52608 -11.990749 2.2841396 4280822563
112.62029 0.12359428 3.348629 4279904544
112.75319 -0.17921638 3.4237747 4280166176
113.35187 -16.807625 2.2343998 4279706138
113.06307 -16.877993 2.2273426 4280032791
112.74499 12.568791 3.2691593 4280294671
112.96955 12.709541 3.2475433 4280228370
113.02921 12.387632 3.2794361 4280228883
111.06099 10.793721 3.3302917 4280493858
110.94431 10.573277 3.273756 4280624665
114.04115 13.986506 3.342865 4280296217
113.87566 13.783046 3.3013992 4280361239
113.98718 12.829406 3.3440781 4279377435
113.97179 13.184828 3.2917976 4280425758
114.30634 13.121162 3.3591919 4280426273
111.45485 20.707123 3.9638863 4279964436
111.51258 20.884945 4.023447 4280425499
111.66139 20.800653 4.0167198 4279964436
111.90425 15.753076 3.4855003 4280952354
112.66279 16.775681 3.4834633 4280164375
113.02679 16.969494 3.4889431 4280687896
112.99039 16.62155 3.4314022 4280886308
114.78127 -10.464929 2.5571499 4280756259
114.09702 -10.792899 2.4549408 4280229151
115.01426 -11.463308 2.3537941 4280494368
118.18967 -9.1939888 2.6794128 4279969055
117.92663 -9.5965347 2.6922283 4280168992
117.6512 -9.2043877 2.6848927 4280690210
113.52802 -10.035643 2.6309547 4280624419
115.72581 8.1220217 3.593111 4280362013
115.99882 8.3448944 3.6889915 4280362789
115.9887 7.851521 3.5818424 4280494108
111.41563 4.3142014 3.1495361 4280493605
112.34302 3.8777161 3.1360054 4280297240
111.15503 3.164906 2.9701099 4281085227
111.42518 3.0600593 3.0213528 4280560161
110.87268 2.075963 3.2493858 4280492056
112.22527 4.1209116 3.1771526 4280295970
112.28905 6.3428416 3.2948303 4280889383
112.31393 6.135911 3.3764458 4280823084
111.51061 18.544991 3.3168221 4280491291
111.61283 18.460518 3.2920208 4280491291
112.62674 19.559666 3.3277493 4281015846
112.81477 19.674681 3.3562012 4281018408
112.99271 19.598358 3.2689342 4280820511
111.81469 9.8073177 3.0953026 4280558893
111.96398 12.974509 3.3536091 4280624930
112.20132 12.655212 3.3146381 4280165411
112.72772 14.682688 3.5578918 4280164383
113.00676 14.683491 3.5520496 4280624927
112.85299 14.568789 3.5347633 4280429341
112.00843 -3.3296466 3.5329304 4280362021
113.29725 -18.092728 2.205349 4280230940
113.59682 -17.536722 2.0582943 4280163604
113.70275 -17.50388 2.0725136 4280098590
113.75058 -17.638905 2.0280304 4280228888
115.67762 -17.266937 2.272049 4280954394
115.58215 -17.509596 2.2495327 4281348387
115.4061 -17.397903 2.276413 4280953880
115.41343 -18.948935 1.626442 4280363047
115.31948 -18.797649 1.6956387 4280495399
115.53589 -18.697317 1.6732845 4280429861
113.71245 -18.084976 1.9427776 4280296729
113.95796 -18.104393 1.9240265 4280492055
113.98889 -18.273933 1.923378 4280296476
112.62718 21.161064 3.979311 4280358416
112.61844 21.337267 3.911684 4280291857
112.78414 21.20233 3.9172363 4280358416
111.42422 17.426949 3.4343529 4280623907
111.47317 19.35392 3.4715176 4280297251
111.74358 19.340446 3.394104 4280559404
112.44424 -17.667007 2.2595654 4280362533
112.59196 -17.849159 2.3395901 4280230693
112.361 -17.757883 2.4637852 4280296229
114.36762 -17.288631 2.1925545 4280822309
114.19612 -16.967989 2.2442799 4281018401
114.56319 -17.086889 2.2670441 4280560673
114.77071 1.2864256 3.4847984 4281017380
114.50401 1.3280587 3.4695129 4280427560
114.62759 1.592382 3.4857121 4280295968
112.20551 6.9005671 3.0790176 4282070320
112.39425 10.098981 3.2243633 4280689174
113.73862 18.267561 3.4166145 4280228631
113.76453 18.476696 3.3312416 4279968278
113.89536 18.387764 3.3709278 4279968278
112.25137 16.0401 3.4506721 4281148962
111.77864 16.221544 3.4728241 4280821530
117.83962 -8.7972898 2.703928 4280495913
112.96227 14.771479 3.5608006 4280427289
113.20048 14.76071 3.5551968 4280624927
112.53632 17.369398 3.5325546 4279638547
112.51079 17.278027 3.5329037 4279703314
111.10568 13.691536 3.6395626 4280428062
116.35476 -6.959507 3.0010891 4280099347
115.58936 -7.5962296 2.9506855 4280888362
115.60038 -6.7091808 3.0350838 4280755233
113.85101 -9.3407021 2.748188 4280952345
116.99809 4.5458078 3.6838093 4280099871
116.894 4.3780308 3.7214413 4279969318
116.67479 4.5540543 3.6820145 4279772452
112.43554 1.3176012 3.2821579 4279903262
111.8419 2.3731637 3.2479095 4280427558
115.33294 -4.7686439 3.246027 4280495402
113.64244 20.136688 3.4800377 4280622610
113.70066 20.330952 3.5823784 4280819224
114.04998 20.167044 3.4192829 4280754451
113.21446 8.1027498 3.0822315 4280229650
113.11828 7.9225855 3.0333595 4280229650
111.74731 3.8336625 3.0405445 4280165148
111.89492 3.7102637 3.0208225 4280626992
111.58839 3.6840479 2.9596157 4280494374
113.70943 6.4482021 3.2660885 4280033829
112.77042 0.98451471 3.3292141 4280690468
113.5169 1.0060363 3.4012108 4280495911
113.19669 1.0461836 3.3801098 4280822567
113.45428 1.3650203 3.4042244 4280231452
112.75609 20.165209 3.7013569 4280624413
112.88324 20.086685 3.6178493 4280624413
113.82095 0.60942173 3.4730663 4280559396
113.3317 4.1437321 3.2725639 4280296222
113.36546 3.8255651 3.2495499 4280101151
113.13957 3.9213579 3.2059422 4279707165
111.30025 2.7342312 3.1363583 4280298798
112.81229 5.7276287 3.4341354 4280690467
113.20661 5.5813322 3.436779 4280820765
112.98588 5.4525757 3.4373627 4280691228
110.48087 4.2140207 3.0935745 4280690210
113.21794 6.5983305 3.1765938 4280165920
113.03112 6.3946886 3.2453327 4280231198
111.24591 5.5153637 3.4752731 4281084175
111.57615 5.550993 3.4367542 4280756516
110.94247 5.6102004 3.5264797 4281609255
112.81024 4.0199389 3.20224 4279576602
112.89235 3.8852251 3.1689186 4279970077
112.61859 3.8565753 3.1503525 4280101147
112.36935 5.2930527 3.3912163 4280493090
112.26083 3.0171552 3.0633125 4280492835
112.57245 3.137037 3.0884666 4280689447
112.51958 14.083661 3.425848 4281215260
112.0091 20.131248 3.7744141 4280624670
113.4687 -1.8551311 3.8353958 4280363034
113.23394 -1.8224187 3.8208504 4280297237
114.80489 -3.5010705 3.3446255 4280427297
114.26346 -3.516963 3.4130383 4280427299
114.65102 -3.250977 3.406889 4280756262
111.76396 14.600929 3.6260929 4280229660
113.4472 -2.7066746 3.6837254 4280493856
113.38675 -3.1006627 3.567009 4280755742
112.92487 -2.9221101 3.6275864 4280823078
113.18581 -2.5185766 3.7196007 4280690209
112.81841 -17.983253 2.7135239 4280165664
112.85516 -17.989882 2.8068333 4280165664
115.57557 -3.5428386 3.2278957 4280427804
115.87387 -3.2388234 3.2081413 4280492573
116.08543 -3.613131 3.2140064 4279836698
114.67319 -9.7873688 2.6906776 4280886811
115.77101 -14.807709 2.2116585 4280887331
115.94194 -14.780001 2.1967049 4280887331
114.95199 -13.550756 2.3083057 4281019933
112.01521 21.34223 4.0616379 4280622108
111.76312 13.234375 3.3986301 4280625696
111.57101 13.403192 3.4551659 4280757286
111.86206 13.498974 3.4009895 4280495143
112.69471 2.5027249 3.2771606 4280360989
113.39918 -17.435444 2.0800953 4280031775
113.59349 -17.663996 2.0184193 4280228888
113.94284 -17.173244 2.1857929 4280755740
115.90492 3.7347782 3.6504154 4280230168
116.07113 3.6588578 3.6706886 4280229658
115.91071 3.5064931 3.6212292 4279968285
113.7669 1.6029401 3.4587936 4280361505
114.09931 1.4936824 3.4712563 4279837992
113.82249 1.216249 3.4244614 4280101666
111.81825 20.68779 3.9951763 4279703319
111.88484 20.886116 4.0537701 4280293654
114.61454 -6.9920955 2.9797878 4280887848
113.83522 -7.57268 2.8542423 4280887837
113.66339 -6.5488472 3.0213718 4281018658
114.48811 -16.839321 2.2756042 4280493598
117.71342 -15.922171 2.1104698 4280690984
117.29329 -15.788313 2.1246109 4280756775
117.6926 -15.433571 2.1426315 4280755750
116.0735 -13.188179 2.1958027 4281018396
116.39778 -13.035815 2.1989651 4280560424
113.65276 -18.277985 2.0597267 4280164894
113.97459 2.5301325 3.5114651 4280164379
113.69062 2.6323614 3.4847603 4280427809
113.91482 2.7830656 3.4639931 4280166432
113.45387 2.3438463 3.4674644 4279968541
113.78023 1.9803052 3.514637 4280296484
113.41807 1.8218594 3.4487839 4280754716
114.12365 2.0222888 3.5249557 4280691241
113.87002 2.3033357 3.5343666 4279837471
114.15831 2.3146844 3.526701 4280624164
116.17081 -8.8461456 2.7862835 4280624424
115.97768 -9.271719 2.7463665 4280887070
115.65832 -9.0081959 2.8147106 4280820755
115.33421 -10.366495 2.5854473 4280626214
115.30061 -10.820492 2.4774609 4281017891
114.16577 -7.8916187 2.8514709 4281084447
114.28521 -8.3387299 2.8466339 4280952868
114.32941 8.3303356 3.2531643 4280624419
114.66368 8.1712952 3.2613564 4280493333
114.46764 7.9531088 3.1440792 4280428570
113.8362 6.7242427 3.1468163 4280363816
113.49785 6.6907749 3.1565323 4280298278
113.67198 6.9470825 3.053688 4280691752
112.9966 6.6436129 3.13834 4280691750
113.15643 6.7531347 3.1014118 4280495139
113.28938 5.8766575 3.4251595 4280426261
113.46309 5.6705818 3.4439259 4280624927
114.45091 -18.426081 1.9064236 4280428574
114.73476 -18.337833 1.937048 4280559382
114.73106 -18.714609 1.8785267 4280493601
114.25378 -18.006317 1.96241 4280689181
113.7831 -18.255642 1.9724998 4280099613
113.98196 -18.402966 2.0198307 4280361503
113.81155 -18.329081 2.021452 4280099613
114.46975 -18.759571 1.9385815 4280428835
114.27185 -18.749662 2.0890102 4280427037
114.17234 -18.580753 2.0673046 4280427295
114.07219 -18.620989 2.2592449 4280295455
113.65601 4.4704041 3.3513508 4280558369
113.04156 4.4416265 3.304018 4280492831
113.22139 4.9236021 3.3831844 4280951589
113.02095 4.1154885 3.2332191 4280099611
112.82096 4.2075367 3.2445621 4280033815
114.64537 6.9442735 3.0389156 4280558889
114.73339 6.7819881 3.0956173 4280362021
114.51711 6.8783622 3.0493431 4280558889
115.20917 -17.533421 2.2489338 4281019686
115.36489 -17.616409 2.2299538 4281217827
112.49464 -17.86372 2.584774 4280362790
113.31187 -17.595104 2.0302238 4280164373
113.28991 -17.855019 2.0065022 4280361499
113.3316 -17.143721 2.1627598 4279901213
115.42856 6.227365 3.3055229 4280362022
115.34016 6.3996091 3.2496758 4279836964
115.75494 6.2084379 3.3160782 4280296746
113.57191 7.3751845 2.9369965 4280690727
111.93378 2.6526308 3.190836 4280231722
113.83472 -18.374674 2.0948124 4280099613
113.95335 -18.479654 2.1992855 4280361503
115.14296 -17.30793 2.2845821 4280888098
116.37019 -14.571412 2.1747112 4281412905
116.89143 -14.500413 2.1578255 4280822050
112.49174 6.2074976 3.3211536 4280888873
112.60555 6.0150747 3.3891315 4280559396
112.75749 6.5201693 3.1861954 4280757028
111.63101 19.575983 3.5269756 4280231707
111.40372 18.568419 3.3487835 4280491796
113.34612 19.67355 3.2476692 4280295192
113.53293 19.575153 3.1874962 4281017367
113.19409 19.482662 3.182518 4280492315
112.57365 8.1078548 3.0969715 4280623907
112.33752 7.7730217 3.0343685 4280098851
111.42229 7.3660221 3.168581 4280623639
111.2717 7.1818876 3.2598362 4280427028
112.68666 16.318975 3.4319744 4280821034
113.91914 18.253281 3.427042 4279377432
112.81073 18.168686 3.3483772 4280558354
112.74128 17.94869 3.424408 4280097040
113.99313 -15.699686 2.2406254 4281083429
114.75455 11.699498 3.5007858 4280098327
114.63471 11.811954 3.5430927 4279900694
114.89882 11.88259 3.5362892 4280098588
115.29164 -2.964262 3.268259 4280625451
115.58276 -3.0589662 3.2101421 4280494375
115.19985 -3.3490624 3.2652779 4280362791
111.80098 7.4797773 3.0597363 4280426524
113.75928 8.9431562 3.3561058 4280165671
114.04917 8.8985023 3.4167137 4279576099
114.15646 8.6482344 3.3363438 4280689952
111.24656 10.830526 3.3327065 4280362784
110.79597 10.282824 3.200079 4280822051
114.55476 21.405731 3.598917 4280624164
114.39371 21.559132 3.6142921 4281148449
114.67201 21.622433 3.5820713 4281213727
112.33876 21.3402 3.9909248 4280489749
111.95902 21.771229 3.953476 4280558362
115.72684 0.034736633 3.6206703 4279903266
115.70271 0.39606333 3.6129875 4280295455
116.23058 0.33041334 3.5526752 4280166432
112.76027 -2.6427345 3.6950874 4280886819
113.47541 -1.0856638 3.766304 4280756008
113.75853 -0.93492126 3.7705727 4280624679
113.90155 -3.1888423 3.5295506 4280428580
113.17668 3.7730401 3.194746 4279773982
112.97228 15.064146 3.5487099 4280621844
113.69409 16.221107 3.3691921 4280885277
112.63497 13.87381 3.3462219 4280821791
113.03049 11.849058 3.3531914 4280557336
113.37937 21.311085 3.725975 4280360989
113.11994 21.603531 3.7170544 4280162326
113.42538 21.527882 3.6771488 4280492054
112.13822 18.231506 3.2617855 4280757293
109.07036 19.913881 3.5152874 4280952104
113.17564 17.361542 3.5492859 4279899923
114.8555 0.72122669 3.5538158 4280296227
114.94846 0.54105759 3.5869217 4280033308
112.35397 21.663778 3.8546391 4280422928
113.18732 21.909666 3.6897659 4280097300
112.15674 2.8067989 3.1290283 4280296993
112.01123 20.742348 4.0281162 4280032281
112.13847 20.864525 4.0638523 4280032281
112.16497 20.640165 3.9978218 4280688418
112.32552 22.039249 3.797123 4280622609
114.17532 -2.943305 3.5956669 4280559651
114.34571 -3.1489286 3.4903946 4280690213
115.20633 -4.2439094 3.2795429 4280559898
114.36214 -8.8955393 2.8143177 4280689945
115.00457 -8.3951492 2.878788 4280887850
114.81909 -9.0987844 2.8053856 4280691743
115.66811 -10.039235 2.6615391 4280561447
113.55865 10.65446 3.4580383 4280296472
113.59187 11.288722 3.4546261 4279965203
111.97527 10.028663 3.1603279 4280493849
113.37048 12.21372 3.3470421 4280295955
113.77824 12.211726 3.429636 4280558868
113.51595 11.789262 3.440752 4280165405
115.68231 11.423353 3.3742104 4280624162
115.4887 11.457687 3.358551 4280559134
115.70425 11.640692 3.4259911 4280624419
112.10651 20.307943 3.8643608 4281017632
112.43605 18.604231 3.1431351 4280823334
112.2877 18.402931 3.2011776 4280888099
112.17737 18.53215 3.1691532 4280691757
113.19672 18.533253 3.2458553 4281083683
112.95638 18.370708 3.2807198 4280952093
113.68033 21.010305 3.732933 4280558356
113.76878 21.31041 3.6679802 4280492307
114.25249 21.020752 3.6241398 4280230419
116.69151 9.6296167 3.8815327 4280231966
116.64282 9.8007278 3.8560619 4280099614
116.85689 9.806673 3.879364 4280230941
113.16622 12.707104 3.2438717 4280162580
113.39052 12.926778 3.2386875 4280163607
113.36855 12.581712 3.2710457 4280031509
113.46831 14.731781 3.5398617 4280690727
113.50134 14.476103 3.49049 4280625444
113.19408 14.601533 3.534647 4280624927
114.21306 -18.467846 1.9392357 4280427295
114.19248 -18.275061 1.9074516 4280493343
115.62508 -15.666598 2.2091808 4280757542
115.88547 -16.359926 2.2085304 4280625182
115.38521 -16.331629 2.2478447 4280888102
115.87095 -17.787842 2.1053448 4281217321
116.13259 -17.795416 2.0725365 4281085993
115.99399 -17.973732 1.9837055 4281347880
115.38975 -14.766615 2.2703896 4280624927
114.20187 -10.296417 2.5668125 4280690985
115.0853 3.6313972 3.4470901 4280099104
114.81567 4.0547256 3.4300308 4280625702
115.25354 4.1361723 3.489563 4280427541
113.55892 0.75468063 3.4225655 4280364333
112.04443 2.9594016 3.0576057 4280296988
112.05257 3.0849655 3.0022297 4280296988
114.40242 -7.4551945 2.9007702 4280494885
115.60762 15.360346 3.1076622 4279377691
115.64548 15.149542 3.1228065 4279506461
115.4541 15.081554 3.1300888 4279836197
113.31723 19.021135 3.1130466 4281149466
113.16882 18.177195 3.4041138 4281017378
112.9577 17.963871 3.4581661 4280557081
115.06918 -18.168436 1.9803047 4280623641
115.34243 -18.33054 1.8805275 4280822308
115.01811 -18.482906 1.8773422 4280559650
112.74648 22.039606 3.7407207 4280032276
112.55978 21.990093 3.7689228 4280623123
112.60925 22.143682 3.7560635 4280623123
115.97668 22.857718 3.7959366 4280426262
116.37027 22.81649 3.7441769 4280295194
116.31095 22.566944 3.7005024 4280295449
114.43491 -15.754167 2.2471523 4280624675
114.82053 -16.948582 2.2880955 4280297502
115.59699 -9.5363979 2.7402382 4280823331
116.97639 -8.3258419 2.8061237 4281478695
116.43593 -8.3980083 2.8283863 4281412904
116.5351 -7.7785773 2.90942 4280494375
116.65953 -5.5436258 3.1359539 4280233002
116.15816 -5.7023392 3.1302395 4280822317
116.0899 -5.0886712 3.2060661 4280166176
117.14178 -2.2137942 3.2811508 4280360992
117.37077 -2.0182238 3.3249092 4280033563
117.48727 -2.3856788 3.3268929 4280229148
113.22151 15.634387 3.4481983 4280296235
113.54239 15.892536 3.3873653 4280297245
113.7552 15.514763 3.4343014 4279968023
114.11765 18.158478 3.4471684 4279442713
113.78926 18.073059 3.4814529 4280097559
114.50108 0.09823513 3.638401 4280428065
114.30472 -13.747405 2.3305359 4281215533
114.78565 20.404335 3.3125916 4281344799
114.54237 20.32144 3.3542747 4281016606
114.57973 20.527962 3.4217434 4280491550
113.21407 20.076006 3.5340004 4280688659
113.3539 20.293428 3.635849 4280753429
113.4274 20.450478 3.7102509 4281015831
115.0172 16.691088 3.1452885 4280099357
115.29697 16.412523 3.1182156 4280096795
114.99191 16.133598 3.1938858 4280163869
113.57902 -2.3755417 3.7442989 4280232229
114.39976 -2.4803443 3.681633 4280821025
114.59875 -2.6478539 3.6128197 4280492575
114.37076 -2.767962 3.6265278 4280493346
114.10238 -0.12851477 3.6506462 4280363051
114.15452 -2.3229718 3.731493 4281084459
114.13046 -2.6710496 3.6808815 4280689184
113.84165 -2.5245361 3.7214088 4280820260
114.21812 19.370506 3.1764755 4280952093
114.45822 19.611992 3.1580372 4280755489
114.55428 19.46372 3.1718388 4280755489
113.22427 6.9014044 3.0413055 4280823075
113.29209 7.0496798 2.9811726 4280823075
113.41291 6.9275322 3.052475 4280691238
115.09185 8.8804131 3.6104336 4280886309
115.05629 8.4498005 3.4630756 4279510051
114.87988 8.788331 3.5383568 4280297517
115.80522 -8.3758793 2.8832283 4280625957
114.02893 1.7597213 3.5007324 4280690729
112.93643 3.203119 3.1781158 4280493604
113.11914 3.0013652 3.2676411 4280427305
113.0603 2.6831069 3.3228626 4280622111
113.6662 -18.265419 2.0360508 4280099613
113.03433 -18.031097 2.5447292 4280099611
113.15631 -18.059387 2.3414383 4280230163
115.27489 -17.775354 2.1705341 4280755753
114.50132 20.737413 3.5221481 4279967518
114.09512 20.772554 3.6395531 4280360465
112.74329 21.938736 3.7444706 4280163089
112.37802 21.880123 3.80159 4280557075
113.59121 13.783684 3.2880516 4280689179
113.27827 13.772607 3.2818756 4280952098
113.13573 17.701067 3.554821 4279898899
113.55608 17.747738 3.5437183 4279376921
113.71257 3.9422908 3.3269424 4280363036
113.59254 3.4668448 3.3147049 4280427801
118.79383 -10.029598 2.6125927 4280560423
118.5016 -9.6029882 2.6647072 4280428839
119.12615 -9.6037607 2.5923786 4280953385
111.24139 18.036072 3.3963337 4280820258
111.969 19.487677 3.4144135 4281280289
114.5183 -20.529865 1.0521049 4279836199
114.56946 -20.537617 1.0474968 4280558113
114.52679 -20.541985 1.0800457 4280558113
114.46833 -20.525585 1.0977993 4280558113
114.46071 -20.506981 1.1117821 4280558113
114.40988 -20.509186 1.1155453 4280558113
114.37487 -20.48959 1.1060867 4280558113
114.41718 -20.517838 1.102438 4279704862
114.46365 -20.54406 1.07691 4279835936
114.56796 -20.540367 1.078968 4280558113
114.57377 -20.509186 1.0692387 4280558113
114.52606 -20.52207 1.0817509 4280558113
113.01662 21.373266 3.7810287 4280293913
113.24494 21.138805 3.803093 4280362013
113.03225 21.198368 3.8364086 4280360728
113.40098 21.708681 3.6663799 4280492054
113.51811 21.813833 3.6620083 4280294419
113.84144 21.546122 3.6443386 4280426523
113.5932 21.566261 3.6534786 4280492054
114.74409 -7.8133688 2.8919048 4280495656
116.07048 -9.6951761 2.6883259 4280757539
116.52058 -9.3382235 2.7025661 4281084207
113.89425 7.4657822 2.9569225 4280756777
114.16921 7.2740741 2.9690266 4280626475
113.73775 0.90173197 3.4247704 4280101925
114.10939 2.6073093 3.4895763 4279574562
117.68462 3.9303222 3.6623707 4280230172
117.6141 4.0848083 3.7043381 4280427042
117.95279 3.8914366 3.6461906 4279968024
114.90431 -1.0350022 3.7935505 4280166436
114.57233 -1.2113366 3.8324165 4280362784
114.69765 -0.76373339 3.8202076 4280362530
114.87814 20.292871 3.24683 4281017632
114.61916 20.08284 3.2417088 4281475871
114.68256 20.222862 3.2760048 4281475871
112.72809 17.772039 3.4877701 4280097040
112.7272 17.637817 3.5300446 4279900429
112.56814 17.593533 3.5091496 4279836435
113.07188 16.316271 3.3958664 4280754984
114.30654 -18.201809 1.9224167 4280428833
114.12505 -18.088675 1.9300823 4280689181
112.92561 17.776089 3.5260277 4280098070
113.09344 16.024639 3.4095497 4280820247
113.57983 17.438942 3.5242329 4280031766
113.79453 17.658031 3.521719 4280097298
113.87506 17.494177 3.4762249 4280427288
115.09372 15.757043 3.1785049 4279968537
115.2365 15.503615 3.1503773 4280165141
114.94928 15.377242 3.2116032 4280493596
112.74174 18.666538 3.1343803 4281280541
112.61525 18.826475 3.0883751 4281018647
113.6661 12.863067 3.2810555 4279639833
113.11277 13.569154 3.2404079 4280690213
113.72573 5.2621255 3.4015369 4280362532
114.13276 5.1057405 3.4102364 4280296225
113.75184 4.9625645 3.3925114 4280297249
113.96217 6.2498264 3.3464394 4279770652
113.98156 6.4902768 3.244442 4280230944
114.27294 15.346931 3.3899899 4280428563
114.47108 15.045207 3.3634529 4280756761
114.19362 14.988396 3.4375763 4281083664
112.75809 6.2183976 3.3092289 4280822564
112.48111 8.7969875 3.1019917 4280952871
112.76817 8.9861164 3.1288567 4280952610
112.97356 8.3311291 3.1258049 4280232742
112.83087 9.8392849 3.2794399 4280687898
114.01176 10.35408 3.526228 4280689700
113.94668 10.290243 3.5398197 4280754979
113.8811 10.554573 3.4740143 4280689694
114.49395 -2.9274478 3.5484848 4280297505
115.6448 -0.79942513 3.5916061 4280623648
115.83495 -0.46851206 3.5627422 4280296738
115.98685 -0.73779345 3.4891644 4280428583
113.80872 -2.8505368 3.6437092 4280559138
114.85001 0.29290533 3.627346 4280100120
114.76306 -0.047023296 3.6888809 4280166186
114.95234 -1.725307 3.6656017 4280690212
115.04369 -2.0663586 3.5829124 4280690212
114.82212 -2.0698714 3.6452484 4280689953
116.70618 -11.180399 2.4804535 4280558626
113.74531 -16.743525 2.2426376 4280492829
113.48575 8.0531902 3.0747948 4280557849
113.35578 7.9317279 3.0294514 4280557849
118.42522 -3.0947413 3.2169914 4280098332
118.68588 -3.2203493 3.1547337 4279837220
118.41398 -3.2987828 3.131897 4280295973
113.93626 -17.966894 1.9509239 4280492055
114.04342 -17.894947 1.9781322 4280754205
114.82691 -2.4161925 3.5866203 4280295706
113.56352 -1.9999318 3.8081532 4280560162
113.67387 -1.8271112 3.8316135 4280820511
114.65017 5.3816338 3.4619045 4280164382
114.47595 5.7881517 3.4479084 4279903527
114.97027 5.5745454 3.4588966 4280295969
112.82696 5.2178078 3.4125462 4280363041
114.08122 3.550504 3.3704472 4279903005
114.59824 3.5768929 3.4034786 4280099358
114.43472 3.0905917 3.3818855 4280494119
113.88827 5.5452385 3.4498291 4280428319
114.79844 6.118031 3.371151 4280493085
114.77509 5.8817701 3.4225063 4280361513
114.5428 6.0352712 3.4059029 4279837214
112.90656 9.5028276 3.253603 4280689950
114.42235 -2.0924382 3.735651 4281149729
111.58161 -2.3071547 3.6053028 4280691750
112.40016 17.184141 3.5258522 4279900695
112.20645 17.451532 3.4860477 4279966232
114.2518 4.1070881 3.3953247 4280953132
114.52007 2.0493169 3.498312 4280494379
114.32626 2.4646189 3.4905148 4280360481
115.49438 4.5746269 3.5169697 4279968799
115.02348 4.5319672 3.4592857 4280688156
114.70899 10.759331 3.3179989 4279969055
114.52676 10.892374 3.3273983 4280165154
114.79941 11.036047 3.2924194 4280427295
112.79928 12.894979 3.2366428 4280228115
113.86008 11.726179 3.5054779 4280165146
114.12839 11.713697 3.5329285 4280164376
113.86045 11.456766 3.4851322 4279833878
114.96169 -14.085268 2.3383408 4280691745
115.29333 -11.245611 2.3954945 4280493858
113.24179 9.376668 3.3473587 4280756255
113.54623 9.2721386 3.4097633 4280625194
113.34597 9.0944996 3.286293 4280756516
113.37214 18.254997 3.4045944 4281017117
113.47903 18.06126 3.4848843 4280230428
113.17102 17.989725 3.4831676 4280427040
112.98099 18.85895 3.1021004 4281215008
114.80986 20.953121 3.4824352 4280228890
115.20322 21.075979 3.3909225 4280819993
115.09492 20.774443 3.3467808 4281215267
115.30186 -8.8132439 2.8467121 4280690728
114.04426 19.162996 3.1787548 4280820511
113.91698 18.955666 3.1991405 4280754980
113.71194 19.081772 3.1623554 4280690203
113.81247 11.046467 3.447031 4280229649
114.09284 10.938467 3.4222088 4280689690
114.65007 9.4112349 3.6709461 4280754466
114.92157 9.2401667 3.6751461 4280295457
114.74672 9.2166538 3.6394157 4280295457
113.99913 9.2675772 3.5419235 4280297772
113.8356 9.1684628 3.455658 4280494645
113.31397 -1.5689492 3.8276806 4280361505
114.33171 9.9630995 3.6564903 4280952106
114.23335 10.144714 3.6041622 4280689700
114.53889 10.052891 3.6359501 4280689699
114.13427 2.4855249 3.5150757 4280098590
113.51467 7.1286535 2.9763298 4280624934
113.84538 7.180727 2.9805641 4280691758
115.80529 6.8408504 3.2243519 4280034337
115.82603 7.0190811 3.2631397 4280100389
116.17767 6.8684158 3.2983093 4280163613
115.49641 -11.565224 2.3453579 4280887586
119.09412 -5.3403449 3.2239265 4280100388
119.34119 -5.6752305 3.253973 4280100396
118.95835 -5.5781336 3.244421 4280362791
115.65124 -5.9711657 3.1178532 4280429091
114.41149 -20.480038 1.1277122 4280558113
115.00948 -7.2272816 2.9651546 4281150246
115.18834 -9.9280815 2.6804295 4280495138
115.19933 -9.3430672 2.7733574 4280757809
114.53986 -20.519459 1.0572224 4279836199
114.25269 2.7575154 3.4395428 4279574562
114.83812 2.4986701 3.4318142 4280360728
111.58054 13.551687 3.4844913 4280757286
113.36369 13.54829 3.2408867 4280623898
114.05732 12.51457 3.4152279 4280229912
114.1568 12.260511 3.4930477 4280624921
115.96783 4.4198561 3.6528606 4279968026
115.82594 4.59061 3.5911942 4279968026
116.08586 4.6166463 3.6343002 4280165406
114.40916 14.780203 3.3818569 4280099863
114.10051 14.712399 3.4535427 4280559379
115.19365 -19.742041 1.4101639 4279835944
115.41598 -19.669287 1.4778309 4279704613
115.34879 -19.953028 1.3609047 4279310878
115.13337 -20.024475 1.2809525 4279703326
115.36913 -20.156034 1.2773972 4279637782
117.09361 -18.317011 2.0118809 4280888870
116.83347 -18.221537 1.9571114 4280888874
117.04593 -18.070431 2.0438824 4280298786
114.90351 -19.703606 1.4220886 4279900701
114.63236 -19.933685 1.2938843 4279769362
114.65568 -19.69342 1.4303684 4279835665
115.17665 -19.411758 1.5335484 4280033559
114.16521 -0.8218894 3.7995739 4280558875
114.14625 -0.51480341 3.7238464 4280623384
117.61583 0.6458559 3.5183544 4279903523
117.50311 0.37864685 3.540554 4279772709
117.26528 0.68149662 3.5367393 4280165161
114.97662 -0.14267492 3.7255459 4280166445
115.16245 -0.22737789 3.7396126 4280166445
114.90778 -0.45156431 3.784296 4280231717
114.63065 4.9404736 3.4447002 4280624928
114.28517 5.3292432 3.4464741 4280296485
115.19594 5.6854177 3.434721 4279969057
115.41543 5.775074 3.4210949 4280296989
113.12984 6.1179657 3.3529167 4279968026
113.45 5.1717072 3.3997459 4280559402
113.16837 5.2405972 3.4115543 4280756005
114.20029 4.6862888 3.4117508 4280821283
114.22353 17.672398 3.4224129 4280623387
114.27854 17.893517 3.4443436 4280098846
114.40738 17.653656 3.3690586 4280689442
112.62115 17.493423 3.5283031 4279638547
113.66193 16.610998 3.3763237 4280556061
112.66789 12.150524 3.3115902 4280098327
114.19894 -18.774712 2.2327442 4280688929
113.93984 -17.701668 2.0219173 4280557084
111.55203 20.571558 3.9470692 4279965197
114.22291 21.340944 3.6253014 4280427297
114.70113 -0.39718056 3.7634335 4280165414
114.03233 0.96070194 3.4501362 4280296995
115.15362 0.52649832 3.611227 4279968283
115.11962 0.74929094 3.5750618 4280164635
117.35052 -7.855536 2.8711967 4281017893
112.82073 20.867266 3.9754829 4280753942
113.24283 20.922901 3.8604069 4280361238
113.26317 20.634747 3.8330078 4280622871
112.33153 19.3727 3.272089 4280558370
113.87621 19.288696 3.1627464 4281083674
113.34686 16.167137 3.3799095 4280820253
114.01923 14.202945 3.3861504 4280362010
114.28441 22.673929 3.801878 4279966741
114.48811 22.916086 3.8771057 4279442199
113.24784 21.721979 3.6793919 4280361241
112.8569 21.290142 3.8615952 4280360978
111.31354 20.270075 3.8459225 4279375631
112.85676 18.513214 3.2153835 4281148961
113.00923 19.731991 3.357645 4281018408
114.43924 7.619175 3.0436726 4280494372
