# .PCD v0.7 - Point Cloud Data file format
VERSION 0.7
FIELDS x y z rgba
SIZE 4 4 4 4
TYPE F F F U
COUNT 1 1 1 1
WIDTH 1269
HEIGHT 1
VIEWPOINT 0 0 0 1 0 0 0
POINTS 1269
DATA ascii
222.5 117.64 -415.47 4291944333
222.62 116.63 -415.42001 4291944333
222.67999 115.75 -415.37 4291944333
223.48 115.45 -415.39001 4291944333
225.64999 121.76 -415.965 4278564675
224.98999 121.06 -415.86499 4278564675
225.2 120.54333 -415.82333 4278564675
225.69501 119.795 -415.77502 4278564675
225.25999 119.96 -415.78 4278564675
225.34 119.13 -415.73001 4278564675
224.41 121.68 -415.91 4278564675
224.33 121.21 -415.85999 4278564675
224.39 120.74 -415.82001 4278564675
223.69501 121.235 -415.845 4278564675
223.59001 120.37 -415.75333 4278564675
224.64 119.97 -415.76999 4278564675
224.52 119.08 -415.69 4278564675
223.67 119.655 -415.69 4278564675
223.71001 119.03 -415.64001 4278564675
228.09 118.74 -415.76999 4282488528
227.45 118.91 -415.76001 4282488528
226.77 118.95 -415.73999 4282488528
226.10001 118.95 -415.73001 4282488528
228.09 118.01 -415.73999 4282488528
227.89 117.2 -415.69 4282488528
227.39499 118.33 -415.73499 4282488528
227.47 117.75 -415.70999 4282488528
226.55 118.24 -415.70999 4282488528
226.67 117.605 -415.685 4282488528
227.32501 116.67 -415.64502 4282488528
226.64999 116.08 -415.57999 4282488528
225.87 118.2 -415.69 4282488528
226.17999 116.67 -415.60999 4282488528
228.55 121.85 -416.10999 4281965860
228.28999 121.2 -415.98001 4281965860
228.09 120.32 -415.86499 4281965860
227.95 119.43 -415.79999 4281965860
227.22 121.38 -415.96002 4281965860
227.62 120.73 -415.88 4281965860
226.67668 121.23333 -415.92001 4281965860
226.81 120.35 -415.82999 4281965860
227.16 119.59 -415.78 4281965860
226.28 119.71 -415.78 4281965860
226.10001 121.00999 -415.88 4281965860
225.89 120.38 -415.82001 4281965860
225.58499 124.975 -416.66998 4280084882
224.78999 125.09 -416.66 4280084882
225.50999 123.99 -416.39999 4280084882
224.78999 124.51 -416.48999 4280084882
225.42999 123.31 -416.23999 4280084882
225.39 122.57 -416.07999 4280084882
224.89999 122.08 -415.98001 4280084882
224.19 124.89 -416.56 4280084882
223.58 125 -416.57001 4280084882
223.06 125.4 -416.67001 4280084882
222.94 124.9 -416.51001 4280084882
224.61 123.2 -416.17001 4280084882
223.64 123.24 -416.14001 4280084882
224.71001 123.87 -416.32001 4280084882
223.84 124.145 -416.35498 4280084882
224.35001 122.67 -416.06 4280084882
223.33 122.76 -416.03 4280084882
223.625 122.065 -415.94 4280084882
222.64999 123.24 -416.10001 4280084882
222.91 124.35 -416.35999 4280084882
222.85001 123.76 -416.22 4280084882
222.89 122.33 -415.95001 4280084882
225.87 127.62 -417.67999 4285523564
225.52 127.19 -417.47 4285523564
225.77 126.71 -417.29001 4285523564
225 127.2 -417.44501 4285523564
225.24001 126.31 -417.10001 4285523564
225.5 127.94 -417.81 4285523564
224.85999 128 -417.81 4285523564
223.62 127.595 -417.54498 4285523564
224.45251 127.3925 -417.5 4285523564
224.14999 126.51 -417.10999 4285523564
224.67999 125.76 -416.87 4285523564
223.62 125.7 -416.79501 4285523564
222.99001 126.95 -417.20999 4285523564
224.25999 127.9 -417.73001 4285523564
223.82999 128.63499 -418.08002 4285523564
223.7 127.9 -417.70001 4285523564
223.11 128.00999 -417.70999 4285523564
228.12 124.7 -416.79999 4279645042
227.48 124.87333 -416.79666 4279645042
226.37 124.83 -416.69 4279645042
228.02499 124.08 -416.61499 4279645042
228.23 123.45 -416.47 4279645042
228.10001 122.22 -416.16 4279645042
228.25999 122.74 -416.29001 4279645042
227.13 124.38 -416.63 4279645042
227.51999 123.465 -416.41501 4279645042
226.42 124.12 -416.5 4279645042
226.92 123.44 -416.37 4279645042
227.58499 122 -416.09003 4279645042
226.8 122.49 -416.14999 4279645042
226.57335 122.01666 -416.04666 4279645042
227.39 122.77667 -416.24667 4279645042
226.74001 123 -416.26001 4279645042
226.17999 123.46 -416.32001 4279645042
226.12 122.82 -416.17999 4279645042
228.83 126.65 -417.5 4285946134
228.28 127.05 -417.62 4285946134
228.33 126.06 -417.23999 4285946134
228.89 125.695 -417.16 4285946134
227.85001 125.56 -417.04001 4285946134
228.34 125.09 -416.94 4285946134
227.14665 127.15333 -417.57333 4285946134
227.56 126.52 -417.35001 4285946134
226.54599 127.19199 -417.54401 4285946134
226.495 126.52 -417.26501 4285946134
227.145 125.64999 -417.005 4285946134
226.52 125.39 -416.85999 4285946134
225.88 125.82 -416.95999 4285946134
228.82501 127.78999 -417.995 4285946134
227.60001 127.91 -417.95001 4285946134
226.515 127.84 -417.83502 4285946134
227.315 127.46001 -417.72498 4285946134
231.41 109.79 -416.07999 4284587111
230.92999 108.6 -416.22 4284587111
231.19 108.05 -416.32999 4284587111
230.59 109.06 -416.12 4284587111
229.92 109.44 -416.03 4284587111
229.58499 108.60001 -416.13 4284587111
230.24001 108.08 -416.26001 4284587111
230.61 107.49 -416.39001 4284587111
229.42 107.745 -416.255 4284587111
229.78999 106.75 -416.47 4284587111
228.81 108.1 -416.14999 4284587111
233.34 106.58 -416.79001 4283924996
234.63 106.43 -416.92001 4283924996
234.61 105.61 -417.10001 4283924996
234.67 104.88 -417.26999 4283924996
234.07001 104.525 -417.31 4283924996
233.78 104.23 -417.35999 4283924996
233.49001 105.97 -416.92999 4283924996
233.46001 105.26 -417.09 4283924996
232.42 106.35 -416.76001 4283924996
232.45 105.77 -416.88 4283924996
232.42 105.28 -416.98999 4283924996
233.21001 104.5 -417.23999 4283924996
233.63 103.72 -417.47 4283924996
232.59334 104.83001 -417.11002 4283924996
232.91 104.27 -417.26999 4283924996
231.66501 105.445 -416.89001 4283924996
231.14999 106.14 -416.70001 4283924996
231.95499 104.695 -417.09 4283924996
232.06 104.07 -417.26001 4283924996
234.03 109.62 -416.32999 4284271158
234.12 108.94 -416.45001 4284271158
234.12 108.19 -416.57001 4284271158
234.25 107.57 -416.67999 4284271158
233.94 107.06 -416.75 4284271158
233.23 109.75 -416.23999 4284271158
232.47 109.59 -416.19 4284271158
233.245 109.155 -416.33002 4284271158
233.33 108.59 -416.42999 4284271158
232.78 109.3 -416.26501 4284271158
232.54001 108.475 -416.375 4284271158
233.37 107.71 -416.57999 4284271158
232.44 107.56 -416.53 4284271158
232.735 106.945 -416.66998 4284271158
231.78999 109.1 -416.20001 4284271158
231.8 108.47 -416.31 4284271158
231.78 107.745 -416.44 4284271158
231.86 107.015 -416.58499 4284271158
231.17999 112.88 -415.84 4282812398
231.82999 112.03749 -415.935 4282812398
231.7 111.43 -415.95999 4282812398
231.36 112.335 -415.88501 4282812398
231.05499 111.505 -415.91 4282812398
231.78 110.73 -416.01999 4282812398
230.67999 112.1 -415.85001 4282812398
229.71001 111.9 -415.79999 4282812398
230.41 110.31 -415.95999 4282812398
229.645 110.625 -415.88501 4282812398
231.72 115.07 -415.82999 4293784623
231.005 115.095 -415.77499 4293784623
231.03 114.34 -415.76999 4293784623
231.19 113.8 -415.79999 4293784623
230.17 115.05 -415.70999 4293784623
230.12 114.46 -415.70001 4293784623
229.28999 115.35 -415.66 4293784623
230.595 113.71 -415.755 4293784623
229.83 113.81 -415.70001 4293784623
229.91 112.93 -415.75 4293784623
229.08499 114.53 -415.63501 4293784623
228.83 113.6 -415.64999 4293784623
228.84 112.81 -415.70001 4293784623
234.25999 112.72 -416.10999 4290517364
234.27 112.02 -416.13 4290517364
234.28999 111.43 -416.14999 4290517364
234.84 111.43 -416.20001 4290517364
234.74501 110.795 -416.23749 4290517364
234.88501 110.085 -416.32001 4290517364
233.5 111.99 -416.06 4290517364
233.73 111.16 -416.13 4290517364
232.485 111.55 -416.01001 4290517364
232.83 110.93 -416.07999 4290517364
232.60001 110.2 -416.13 4290517364
233.67999 110.34 -416.20999 4290517364
233.78 115.66 -416.01001 4291755632
234.49001 115.28 -416.06 4291755632
234.16 113.75999 -416.08002 4291755632
232.92999 115.76 -415.95001 4291755632
231.91 115.61 -415.87 4291755632
233.72 114.99 -416.01999 4291755632
233.49001 114.33 -416.01001 4291755632
232.64999 115.03 -415.92001 4291755632
232.78 114.34 -415.94 4291755632
233.38 113.84 -416 4291755632
233.58 113.005 -416.03 4291755632
232.85001 113.57 -415.95001 4291755632
232.53999 112.75 -415.95001 4291755632
231.8725 114.4275 -415.85001 4291755632
231.92999 113.63 -415.87 4291755632
237.62 106.03 -417.17999 4280808256
237.88501 105.49 -417.32001 4280808256
237.19 106.36 -417.09 4280808256
237.38 105.64 -417.26001 4280808256
237.67999 104.56 -417.54001 4280808256
236.77 104.65 -417.45999 4280808256
236.92 104.04 -417.62 4280808256
237.73 103.89 -417.70999 4280808256
237.89999 103.26 -417.87 4280808256
237.16 103.16 -417.86499 4280808256
236.67499 105.505 -417.255 4280808256
235.83 106.06 -417.07999 4280808256
235.69 105.37 -417.23001 4280808256
236.23 103.93 -417.60999 4280808256
235.78999 104.76 -417.38 4280808256
235.61 103.73 -417.62 4280808256
234.91501 104.11501 -417.47501 4280808256
236.25999 103.12 -417.82001 4280808256
236.82001 108.8 -416.63 4293560357
237.24001 107.54 -416.85999 4293560357
236.285 108.35001 -416.67499 4293560357
235.81 109.1 -416.51999 4293560357
235.48001 108.495 -416.60999 4293560357
236.27 106.85 -416.94 4293560357
235.92 107.6 -416.78 4293560357
234.89999 109.27 -416.45001 4293560357
234.82001 108.55 -416.56 4293560357
234.92 107.87 -416.67999 4293560357
234.99001 107.2 -416.79999 4293560357
240.75 105.245 -417.58499 4289753163
240.24001 104.89 -417.64001 4289753163
239.53 104.92 -417.57001 4289753163
238.53999 104.42 -417.62 4289753163
240.7675 104.6125 -417.76749 4289753163
241.02 104.14 -417.92001 4289753163
240.17 104.4 -417.76999 4289753163
240.39999 103.73 -417.97 4289753163
240.82001 102.93 -418.23001 4289753163
240.12 103.01 -418.10999 4289753163
239.73 104.5 -417.70001 4289753163
239.34666 103.90667 -417.81332 4289753163
238.52 103.72 -417.79999 4289753163
239.57666 103.14333 -418.01669 4289753163
238.75999 103.04 -417.98001 4289753163
240.86 106.785 -417.22498 4293856107
239.32001 106.87 -417.09998 4293856107
237.89999 106.98 -417 4293856107
240.89 105.97 -417.41 4293856107
240.24001 106.32 -417.26999 4293856107
239.87 105.66 -417.39999 4293856107
239.22 106.02 -417.28 4293856107
238.46001 106.42 -417.14999 4293856107
238.67999 105.23 -417.42999 4293856107
239.89 109.3 -416.73999 4287561941
240.05499 108.325 -416.89502 4287561941
240.58 107.79 -417.01999 4287561941
239.8 107.38 -417.04001 4287561941
239.61 108.7 -416.81 4287561941
238.96001 109.1 -416.70999 4287561941
238.87 108.42 -416.81 4287561941
238.74001 107.66 -416.92001 4287561941
237.99001 108.89 -416.67999 4287561941
237.77 108.19 -416.78 4287561941
237.8 111.72 -416.42001 4292951535
237.2 112.43 -416.35001 4292951535
237.12 111.51 -416.39001 4292951535
237.34 110.46 -416.47 4292951535
237.19 109.52 -416.54999 4292951535
236.39 112.3 -416.31 4292951535
236.23 111.34 -416.34 4292951535
235.59 112.5 -416.23999 4292951535
236.41 110.25 -416.42001 4292951535
235.50999 110.91 -416.29999 4292951535
235.575 109.93 -416.39001 4292951535
235.11 111.94 -416.20999 4292951535
236.27 109.54 -416.48001 4292951535
237.53 115.39 -416.26999 4287447847
237.07001 115.09 -416.25 4287447847
236.995 114.175 -416.27002 4287447847
237.2 113.79 -416.29001 4287447847
237.13 113.22 -416.31 4287447847
236.44 115.59 -416.20001 4287447847
235.685 115.13 -416.155 4287447847
235.73 114.35 -416.17999 4287447847
236.3 115.18 -416.19 4287447847
236.5 114.445 -416.22998 4287447847
235.39 114.03 -416.17001 4287447847
236.32001 113.73 -416.25 4287447847
236.49001 113.08 -416.28 4287447847
235.81 113.18 -416.23999 4287447847
234.95 114.63 -416.11499 4287447847
235.09 113.52 -416.17001 4287447847
234.77 113 -416.14999 4287447847
240.37 112.05 -416.51999 4280945779
240.095 111.39 -416.55499 4280945779
240.79001 109.9 -416.745 4280945779
240.34 110.43 -416.64999 4280945779
239.75 110.17 -416.64001 4280945779
238.97 111.96 -416.45001 4280945779
238.5 111.45667 -416.46329 4280945779
239.325 110.82 -416.54999 4280945779
239.05 109.83 -416.63 4280945779
238.42999 110.645 -416.51501 4280945779
237.89 111.02 -416.45999 4280945779
238.16 109.64 -416.60001 4280945779
240.11 114.21 -416.465 4285825231
240.34 112.77 -416.48999 4285825231
239.625 115.195 -416.44 4285825231
239.14999 114.18 -416.39001 4285825231
238.7 114.82 -416.35999 4285825231
238.62 114.42 -416.35001 4285825231
239.69 113.6 -416.42001 4285825231
239.22 113.22 -416.39999 4285825231
238.66501 113.755 -416.35999 4285825231
238.52 112.87 -416.38 4285825231
237.90001 114.52667 -416.31003 4285825231
237.755 113.7 -416.32501 4285825231
237.71001 112.87 -416.35001 4285825231
239.52 112.47 -416.44 4285825231
238.07001 112.29 -416.39999 4285825231
230.91 118.22 -415.92001 4284381543
231.19501 117.3 -415.90002 4284381543
231.2 116.55 -415.85999 4284381543
231.14 115.93 -415.82001 4284381543
230.08 118.18 -415.85001 4284381543
230.69 117.56 -415.87 4284381543
229.35001 117.93 -415.79001 4284381543
229.95 117.4 -415.81 4284381543
230.55 116.89 -415.82999 4284381543
230.32001 115.92 -415.76001 4284381543
229.77 116.63 -415.76001 4284381543
229.5 115.96 -415.70001 4284381543
228.72 118.4 -415.78 4284381543
228.905 117.32 -415.73999 4284381543
229.03999 116.39 -415.70001 4284381543
228.45 116.7 -415.67999 4284381543
228.44 115.85 -415.64001 4284381543
231.04001 120.43 -416.10498 4292644995
230.35501 121 -416.11499 4292644995
229.625 121.27 -416.09 4292644995
229.58499 120.44 -415.97 4292644995
230.63 121.38 -416.20001 4292644995
230.23 119.89 -415.97 4292644995
230.38 118.965 -415.91501 4292644995
229.55 119.47 -415.88 4292644995
229.42999 118.73 -415.82999 4292644995
229.11 121.195 -416.035 4292644995
228.59 119.87 -415.85001 4292644995
228.71001 119.17 -415.82001 4292644995
234.89999 118.64999 -416.255 4285294101
234.205 118.865 -416.22501 4285294101
233.175 118.995 -416.16 4285294101
233.67999 118.91 -416.19 4285294101
234.85999 117.485 -416.16998 4285294101
234.14 118.09 -416.17001 4285294101
233.84 117.58 -416.10999 4285294101
234.89499 118.06 -416.215 4285294101
234.36 118.4 -416.20001 4285294101
234.19501 116.74001 -416.07501 4285294101
233.52 118.26 -416.14001 4285294101
233.25999 117.405 -416.06 4285294101
232.72 118.29 -416.07999 4285294101
232.53999 117.67 -416.01999 4285294101
233.03 116.43 -415.98999 4285294101
233.59 116.07 -416 4285294101
232.42999 116.99 -415.98001 4285294101
231.75 118.48 -416 4285294101
231.78 117.63 -415.95999 4285294101
231.875 116.645 -415.91501 4285294101
233.89999 121.935 -416.53497 4290533632
234.09 121.11 -416.42001 4290533632
234.10001 120.59 -416.35999 4290533632
233.91 119.745 -416.26501 4290533632
232.53 121.91 -416.42499 4290533632
231.77 121.68 -416.34 4290533632
233.25999 121.21 -416.37 4290533632
233.39499 120.51 -416.29999 4290533632
232.56999 120.97333 -416.29666 4290533632
232.63667 120.35667 -416.22998 4290533632
232.33 119.56 -416.13 4290533632
232.57001 119.08 -416.11499 4290533632
233.17999 119.67 -416.20999 4290533632
231.78 120.15 -416.14001 4290533632
232.07001 121.23 -416.29001 4290533632
231.82001 120.75 -416.22 4290533632
231.3 121.16 -416.23001 4290533632
231.38 119.48 -416.04001 4290533632
231.19501 124.935 -417.08502 4281345429
231.49001 123.15 -416.60999 4281345429
231.5 122.56 -416.48001 4281345429
231.09001 122.00666 -416.35001 4281345429
230.09 124.88 -416.98999 4281345429
229.21001 124.91 -416.94 4281345429
230.5 124.25 -416.82999 4281345429
230.61 123.59 -416.66 4281345429
229.66333 124.22334 -416.7767 4281345429
229.74001 123.14 -416.5 4281345429
230.40999 122.75 -416.44998 4281345429
230.38335 121.89333 -416.27664 4281345429
229.495 122.09 -416.23999 4281345429
228.7 124.49 -416.79001 4281345429
229.02 123.74 -416.60001 4281345429
228.765 122.63 -416.29999 4281345429
231.22 126.2 -417.53 4294320335
231.78667 125.60333 -417.36331 4294320335
231.09 125.72 -417.34 4294320335
230.95 127.87 -418.20001 4294320335
231.60001 126.62 -417.72 4294320335
230.85001 127.04 -417.82999 4294320335
230.37 126.33334 -417.50668 4294320335
229.58 126.505 -417.51001 4294320335
230.45 125.44 -417.19 4294320335
229.64999 125.695 -417.22 4294320335
229.7 127.86 -418.09 4294320335
230.25 127.52 -417.98001 4294320335
229.48 127.13 -417.75 4294320335
233.85001 124.955 -417.31 4290814970
233.06 124.77 -417.19 4290814970
232.14999 125.13 -417.23001 4290814970
234.13 124.14333 -417.07666 4290814970
234.33 123.49 -416.89999 4290814970
234.5 123 -416.79999 4290814970
233.43333 124.16666 -417.03003 4290814970
233.55 123.63 -416.88 4290814970
232.81 123.87 -416.89001 4290814970
232.98 123.37 -416.76999 4290814970
232.72 122.75 -416.60001 4290814970
231.63 123.92 -416.82001 4290814970
232.14 124.52 -417.04001 4290814970
233.82001 125.71 -417.57001 4284225350
232.67334 125.72666 -417.48331 4284225350
232.03 126.17 -417.59 4284225350
235.00999 127.57 -418.39001 4284225350
234.35001 128.05 -418.56 4284225350
234.85001 127.04 -418.14999 4284225350
234.78 126.405 -417.88501 4284225350
233.97 127.3 -418.19 4284225350
233.87 126.27 -417.76999 4284225350
234.58 125.94 -417.70001 4284225350
233.46001 127.61 -418.28 4284225350
232.57001 127.92 -418.35001 4284225350
233.325 127.08 -418.04498 4284225350
232.27 127 -417.92999 4284225350
232.69 126.51 -417.76999 4284225350
231.89 127.48 -418.09 4284225350
237.11749 118.885 -416.47498 4284898571
237.13499 118.165 -416.41998 4284898571
237.19501 117.48 -416.35498 4284898571
237.69 116.85 -416.34 4284898571
237.095 116.715 -416.27499 4284898571
236.83 115.99 -416.23001 4284898571
236.36 118.24 -416.345 4284898571
236.46333 117.46333 -416.28665 4284898571
235.85001 118.4 -416.31 4284898571
235.81 117.45 -416.22998 4284898571
236.06 116.47 -416.17999 4284898571
235.47 116.86 -416.17001 4284898571
235.66 116.02 -416.14001 4284898571
236.35001 116.87 -416.23001 4284898571
234.98 116.45 -416.10999 4284898571
234.5 115.94 -416.06 4284898571
237.38 121.84 -416.82999 4282725152
237.61 120.66 -416.67999 4282725152
237 121.24 -416.70001 4282725152
236.83 120.25 -416.57001 4282725152
236.87 119.62 -416.51001 4282725152
236.325 121.91 -416.73999 4282725152
235.14999 121.96 -416.64001 4282725152
236.205 121.005 -416.60001 4282725152
236.39 120.61 -416.565 4282725152
235.66 121.13 -416.57001 4282725152
235.44501 120.37 -416.45502 4282725152
236.05 119.82 -416.45001 4282725152
236.49001 119.01 -416.42001 4282725152
235.91 119.14 -416.38 4282725152
234.92 121.165 -416.5 4282725152
234.75999 120.36 -416.39001 4282725152
234.87 119.545 -416.32501 4282725152
240.2 118.69 -416.73999 4282113170
239.32001 118.93 -416.67999 4282113170
238.625 118.995 -416.63 4282113170
237.99001 119.08 -416.57999 4282113170
239.85001 118.14 -416.66 4282113170
239.84 117.39 -416.60001 4282113170
239.78999 116.77 -416.54001 4282113170
239.17999 118.12 -416.60498 4282113170
239.18748 117.47 -416.54752 4282113170
238.58 118.03666 -416.54666 4282113170
238.55499 117.42 -416.48999 4282113170
239.67999 116.22 -416.48001 4282113170
238.7 116.79 -416.44 4282113170
238.39 115.965 -416.35498 4282113170
238.09 118.55 -416.54001 4282113170
237.88501 117.445 -416.42499 4282113170
239.92 121.92 -417.10001 4279314205
240.55 121.53 -417.10001 4279314205
240.35001 120.92 -416.98999 4279314205
240.17 120.33 -416.89999 4279314205
240.50999 119.22 -416.82001 4279314205
240.09 119.84 -416.82999 4279314205
239.33499 121.94 -417.04498 4279314205
238.3 121.78 -416.91 4279314205
239.49001 120.85 -416.89999 4279314205
239.71001 121.4 -417 4279314205
239.41 120.26 -416.81 4279314205
238.86 121.38 -416.89999 4279314205
238.60001 120.47 -416.755 4279314205
239.56 119.56 -416.76001 4279314205
238.62 119.61 -416.67001 4279314205
237.94 121.28 -416.79999 4279314205
237.785 119.77 -416.60498 4279314205
237.22 124.78 -417.51999 4294680128
237.315 124.09 -417.32501 4294680128
237.28999 123.54 -417.17001 4294680128
237.09 122.8 -416.98001 4294680128
236.48334 124.97333 -417.51999 4294680128
235.65332 124.85667 -417.41333 4294680128
234.88 125.51 -417.57001 4294680128
234.81 124.82 -417.33499 4294680128
236.37 124.265 -417.29749 4294680128
236.575 123.39 -417.07001 4294680128
235.435 124.43 -417.26501 4294680128
235.7 123.57 -417.04001 4294680128
235.59 122.57 -416.79001 4294680128
234.92999 124.065 -417.11499 4294680128
237.78999 127.08 -418.39999 4282186467
237.85001 127.49 -418.59 4282186467
237.89 126.545 -418.185 4282186467
236.98999 127.095 -418.345 4282186467
237.09 126.45 -418.07999 4282186467
237.28999 125.86 -417.87 4282186467
236.73 127.68 -418.57999 4282186467
235.92 128.03999 -418.69 4282186467
236.03999 127.2 -418.31 4282186467
236.25999 126.17 -417.91 4282186467
235.685 126.5 -417.995 4282186467
236.08 125.67 -417.70999 4282186467
235.39 125.98 -417.78 4282186467
238.61 124.76 -417.63 4290682087
237.89999 124.57 -417.51001 4290682087
239.965 124.31 -417.655 4290682087
240.175 122.73 -417.26501 4290682087
239.36501 124.125 -417.535 4290682087
239.37 123.23 -417.29999 4290682087
238.39 124.21 -417.45001 4290682087
238.71001 123.69 -417.35001 4290682087
239.41 122.62 -417.17001 4290682087
238.45 122.83 -417.11499 4290682087
238.82001 122.015 -417 4290682087
237.81 124.14 -417.38 4290682087
237.82001 123.56 -417.22998 4290682087
237.7 122.45 -416.95999 4290682087
238.14 122.18 -416.95999 4290682087
240.06 126.58 -418.42999 4278511899
240.815 125.58 -418.15002 4278511899
240.23 125.91 -418.20001 4278511899
239.99001 124.93 -417.85001 4278511899
239.06 126.52 -418.28 4278511899
238.44 126.81 -418.34 4278511899
238.60001 127.25 -418.54999 4278511899
239.545 125.68 -418.03497 4278511899
239.33 124.88 -417.75 4278511899
238.685 125.62 -417.91501 4278511899
237.91 125.22 -417.70999 4278511899
219.265 133.95 -422.41 4292569765
219.08499 132.09 -420.44 4292569765
219.69 131.715 -420.10999 4292569765
219.155 131.44501 -419.85001 4292569765
218.97 131.78 -420.14999 4292569765
219.21001 132.95 -421.29999 4292569765
219.11668 133.27666 -421.64999 4292569765
219.155 132.515 -420.86499 4292569765
217.63501 134.06834 -422.52335 4292569765
218.36 132.25999 -420.595 4292569765
217.53999 132.31 -420.60999 4292569765
218.49001 131.35001 -419.75 4292569765
218.26999 131.75 -420.10001 4292569765
217.69 131.47 -419.82001 4292569765
217.64 131.87 -420.19 4292569765
216.69 132.285 -420.57001 4292569765
216.92999 131.74001 -420.06 4292569765
218.45499 132.935 -421.26501 4292569765
218.34334 132.59666 -420.92001 4292569765
217.52499 132.94 -421.22998 4292569765
217.36 133.41 -421.72 4292569765
217.63 132.60001 -420.91 4292569765
216.905 132.63501 -420.905 4292569765
221.78999 132.87 -421.23999 4285584995
221.60001 133.56 -421.98999 4285584995
221.48999 134.01251 -422.53 4285584995
220.705 134.005 -422.52002 4285584995
220.095 134.065 -422.57999 4285584995
221.645 131.75 -420.185 4285584995
220.63 131.815 -420.23001 4285584995
220.2 132.17999 -420.54999 4285584995
221.28999 132.87 -421.26001 4285584995
221.3 133.3 -421.71335 4285584995
221.42499 132.455 -420.845 4285584995
220.52499 132.83501 -421.22498 4285584995
220.545 133.35999 -421.785 4285584995
220.77 132.49001 -420.87332 4285584995
219.69 132.88 -421.25 4285584995
219.95001 133.37 -421.785 4285584995
219.75999 132.47 -420.84 4285584995
219.1946 138.25922 -429.2677 4293672928
219.12125 138.985 -430.91748 4293672928
219.05501 138.54099 -430.06903 4293672928
219.17833 139.10667 -431.51001 4293672928
218.59 138.19 -429.44 4293672928
218.27 137.98999 -428.69501 4293672928
218.03999 138.03999 -429.48999 4293672928
217.535 137.875 -429.27499 4293672928
216.92 137.72 -429.28 4293672928
216.41 137.60001 -429.20999 4293672928
218.64999 138.83 -430.92001 4293672928
218.32001 138.26817 -430.06003 4293672928
218.36876 138.66 -430.83127 4293672928
217.795 138.125 -430.20001 4293672928
217.66502 138.31375 -430.8075 4293672928
218.52998 138.88333 -431.47665 4293672928
218.17334 138.73 -431.31665 4293672928
218.09 138.78 -432 4293672928
217.61201 138.533 -431.54901 4293672928
217.495 138.55499 -432.22501 4293672928
217.4725 138 -430.18753 4293672928
217.06 138.10001 -431.07001 4293672928
216.97667 138.22667 -431.60669 4293672928
217.035 138.38 -432.38 4293672928
216.78999 137.76668 -430.08334 4293672928
216.81999 137.88167 -430.72498 4293672928
216.16 137.595 -429.97498 4293672928
216.19199 137.67801 -430.87003 4293672928
216.62 137.95001 -431.34 4293672928
219.18109 137.57777 -426.38556 4291079587
219.11749 136.995 -426.14584 4291079587
219.08798 137.998 -427.08197 4291079587
218.925 138.02499 -427.52002 4291079587
218.36401 137.548 -426.52203 4291079587
218.30833 136.98334 -426.2583 4291079587
217.85001 137.38501 -426.56 4291079587
217.6709 136.92455 -426.37637 4291079587
216.95248 136.86125 -426.45502 4291079587
218.30833 137.81833 -427.05087 4291079587
218.31667 137.89668 -427.73331 4291079587
217.71298 137.61349 -427.00595 4291079587
217.59599 137.73601 -427.82001 4291079587
217.44 137.755 -428.38 4291079587
216.91833 137.41167 -427.20334 4291079587
216.88 137.53001 -427.74332 4291079587
216.70999 137.24124 -426.98749 4291079587
216.85999 137.62 -428.41 4291079587
218.39998 136.48332 -426.03 4291079587
217.57332 136.37334 -426.03333 4291079587
216.78598 136.37 -426.06601 4291079587
221.98 138.86 -429.5 4289501975
222.06857 139.74571 -430.94144 4289501975
222.22308 140.03539 -431.54462 4289501975
222.24333 139.28334 -430.14001 4289501975
222.06 139.53 -430.60001 4289501975
221.465 139.58501 -430.995 4289501975
221.47002 139.78334 -431.53833 4289501975
220.87 139.59 -431.57501 4289501975
220.73749 139.64 -432.20749 4289501975
221.42 139.02499 -430.02499 4289501975
221.375 139.32001 -430.57001 4289501975
220.625 138.985 -430.255 4289501975
220.61665 139.30165 -430.87 4289501975
220.575 138.70999 -429.76001 4289501975
220.41667 139.44667 -431.54001 4289501975
220.02499 138.92001 -430.33002 4289501975
219.87334 139.16585 -430.87 4289501975
219.81001 138.63875 -429.92624 4289501975
219.44 138.87 -430.42001 4289501975
219.84999 139.29333 -431.43332 4289501975
219.95999 139.405 -432.13501 4289501975
222.85817 138.28728 -426.1882 4284086539
222.95667 138.31667 -426.90665 4284086539
221.99376 138.2325 -426.90497 4284086539
222.17999 138.34 -427.745 4284086539
222.10249 138.52251 -428.57501 4284086539
222.33 138.75 -429.14001 4284086539
221.185 138.11499 -426.85999 4284086539
221.455 138.28749 -427.73999 4284086539
220.73999 138.10667 -427.10336 4284086539
220.57001 138.22751 -427.79749 4284086539
221.29668 138.38333 -428.37 4284086539
221.38751 138.65999 -429.2775 4284086539
220.50999 138.345 -428.66 4284086539
220.515 138.5325 -429.36749 4284086539
220.58 138.01501 -426.79251 4284086539
219.8125 138.08 -427.245 4284086539
219.96001 138.18001 -427.80664 4284086539
219.35001 138.07001 -427.28 4284086539
219.27333 138.10667 -427.84335 4284086539
219.90668 138.24834 -428.51501 4284086539
219.80501 138.38249 -429.34497 4284086539
219.07001 138.125 -428.47498 4284086539
219.892 137.98599 -426.85199 4284086539
219.22 134.6575 -423.33502 4282631241
218.53999 133.67 -422.04999 4282631241
218.40401 134.642 -423.298 4282631241
218.67 134.24001 -422.75 4282631241
217.64499 134.625 -423.26501 4282631241
216.98001 134.605 -423.26501 4282631241
218.2 133.31 -421.64001 4282631241
219.2 135.28 -424.32999 4282631241
218.94666 135.55666 -424.79333 4282631241
219.12001 136.21454 -425.72815 4282631241
219.16 135.00999 -423.89001 4282631241
218.395 135.215 -424.20499 4282631241
218.5 135.56 -424.81 4282631241
217.32001 135.31 -424.39001 4282631241
217.69 135.58 -424.85999 4282631241
218.418 136.106 -425.66895 4282631241
217.55197 136.04201 -425.63403 4282631241
218.14 134.98 -423.81 4282631241
217.48 135.03 -423.91 4282631241
216.93333 135.57666 -424.89001 4282631241
216.78 135.03999 -423.95999 4282631241
222.15332 134.50999 -423.13333 4284212219
221.42999 134.63 -423.29999 4284212219
220.73 134.5 -423.14001 4284212219
220.14 134.75999 -423.51001 4284212219
222.86436 136.04813 -425.09125 4284212219
222.80571 135.66 -424.75143 4284212219
222.052 135.94801 -425.08405 4284212219
222.19 135.25334 -424.18997 4284212219
222.19249 135.6575 -424.75998 4284212219
221.3475 135.9075 -425.11499 4284212219
221.44501 135.22 -424.14999 4284212219
221.422 135.63199 -424.77203 4284212219
220.78 135.84 -425.10999 4284212219
220.53 135.21001 -424.17999 4284212219
220.66499 135.63667 -424.83499 4284212219
220.59088 136.20636 -425.44998 4284212219
221.62 134.97 -423.78 4284212219
220.95 134.89999 -423.69 4284212219
220.16 135.84 -425.16 4284212219
219.75999 135.14 -424.10001 4284212219
219.83401 135.576 -424.80597 4284212219
222.19 138.09 -425.89999 4278672726
222.13335 138.21001 -426.28833 4278672726
222.06294 137.68059 -425.67944 4278672726
222.14102 136.89999 -425.47397 4278672726
221.47 138.11 -426.505 4278672726
221.48445 137.53444 -425.81555 4278672726
221.21799 137.804 -426.10602 4278672726
221.28101 136.94101 -425.66901 4278672726
220.67801 137.731 -426.26001 4278672726
220.72998 136.82001 -425.75284 4278672726
220.45 137.14 -425.95001 4278672726
219.87624 137.70874 -426.42184 4278672726
220.00667 136.64667 -425.83667 4278672726
219.75145 137.03999 -426.07144 4278672726
222.14833 136.33 -425.33167 4278672726
221.37288 136.2 -425.35211 4278672726
219.8259 136.1947 -425.56766 4278672726
223.53999 133.72 -422.17001 4288765997
224.46001 134.07333 -422.64331 4288765997
223.69 134.16501 -422.70001 4288765997
222.78 133.61 -422.01001 4288765997
222.78333 134.00334 -422.47998 4288765997
222.18999 134.062 -422.56403 4288765997
223.44 132.19 -420.64001 4288765997
224.30499 131.715 -420.28003 4288765997
223.64499 131.8 -420.315 4288765997
222.60001 131.85001 -420.29999 4288765997
224.32001 132.96001 -421.41 4288765997
224.23999 133.32001 -421.77002 4288765997
224.28 132.24001 -420.73999 4288765997
223.64999 132.94 -421.35001 4288765997
223.67499 133.17 -421.58502 4288765997
223.61501 132.625 -421.04999 4288765997
223.005 132.98 -421.35498 4288765997
223.13 133.38 -421.76999 4288765997
222.70999 132.505 -420.89999 4288765997
222.26999 133.36 -421.745 4288765997
222.08 132.61668 -421 4288765997
228.25 131.67 -420.45999 4290846158
228.61 132.47501 -421.20999 4290846158
228.05 133.24001 -421.92999 4290846158
226.69 133.80499 -422.47501 4290846158
225.97002 133.89665 -422.54001 4290846158
225.42 133.98 -422.60999 4290846158
226.79001 131.49001 -420.20499 4290846158
226.035 131.78 -420.41998 4290846158
227.28333 133.18666 -421.82333 4290846158
227.24001 132.31 -420.97 4290846158
226.33 133.37 -421.95001 4290846158
226.23 133.11 -421.67001 4290846158
226.14 132.57001 -421.14999 4290846158
225.185 133.19501 -421.70001 4290846158
225.06 132.38 -420.91 4290846158
225.81 139.59 -429.53 4293958291
225.25999 139.58 -429.60999 4293958291
225.01001 139.35599 -429.30402 4293958291
225.095 140.37 -430.965 4293958291
225.08333 139.86 -430.13663 4293958291
225.04333 140.17334 -430.62 4293958291
225.13501 140.55499 -431.42999 4293958291
224.46999 139.285 -429.43668 4293958291
223.63 138.98 -429.17999 4293958291
222.90999 138.97334 -429.38333 4293958291
224.315 140.35501 -431.125 4293958291
224.4375 139.67001 -430.04749 4293958291
224.27284 140.1843 -430.78857 4293958291
223.855 140.33501 -431.15503 4293958291
223.62 139.73 -430.29001 4293958291
223.61546 140.14 -430.84818 4293958291
224.21834 140.45833 -431.45004 4293958291
223.36 140.3 -431.25 4293958291
223 139.64999 -430.38501 4293958291
222.86626 139.97499 -430.88876 4293958291
224.42499 139.48001 -429.78748 4293958291
223.52499 139.39999 -429.88501 4293958291
222.76999 139.34 -430.04599 4293958291
225.7 138.5 -425.97 4279638081
225.265 138.485 -426.28998 4279638081
225.91 138.89999 -427.98001 4279638081
225.95 138.64 -427 4279638081
225.69 138.72 -427.53 4279638081
225.065 138.54001 -427.095 4279638081
225.11499 138.66249 -427.77496 4279638081
225.87 139.19667 -428.73666 4279638081
225.82501 139.42 -429.17499 4279638081
225.15668 138.91333 -428.47336 4279638081
224.425 138.41 -426.33502 4279638081
223.51714 138.34145 -426.2543 4279638081
224.245 138.435 -427.13 4279638081
224.62 138.58 -427.79999 4279638081
223.62 138.38 -427.15002 4279638081
223.88 138.5 -427.85999 4279638081
224.42999 138.94 -428.81 4279638081
224.38 138.66 -428.20999 4279638081
223.545 138.67999 -428.54498 4279638081
222.97334 138.43999 -427.92667 4279638081
222.81667 138.59001 -428.51669 4279638081
228.8625 138.64 -426.26001 4289087424
228.092 138.58798 -426.27603 4289087424
228.88499 138.685 -426.79999 4289087424
228.24001 138.92 -427.89999 4289087424
228.14499 138.67001 -426.97501 4289087424
228.00999 138.78999 -427.5 4289087424
228.12 139.205 -428.57251 4289087424
228.02 139.5 -429.14999 4289087424
227.35001 139.60501 -429.38 4289087424
227.524 138.562 -426.27002 4289087424
226.71333 138.55333 -426.23666 4289087424
227.46001 138.90334 -427.82999 4289087424
227.32001 138.64999 -426.92499 4289087424
226.73001 138.95 -427.875 4289087424
226.47 138.73 -427.20999 4289087424
226.88 138.8 -427.45001 4289087424
227.55 139.42 -429.04999 4289087424
226.58 139.175 -428.48001 4289087424
226.60001 139.41 -429.03 4289087424
225.32999 134.47501 -423.22 4287584370
225.82832 136.19084 -424.85498 4287584370
225.88 135.63667 -424.66165 4287584370
225.073 136.17702 -424.93097 4287584370
225.15999 135.17332 -424.14331 4287584370
225.09167 135.61499 -424.6517 4287584370
225.14 134.89999 -423.76999 4287584370
224.42665 134.56334 -423.25668 4287584370
223.85001 134.86 -423.64001 4287584370
223.12 134.57001 -423.22 4287584370
224.33453 136.15273 -424.98819 4287584370
224.29599 135.25 -424.21002 4287584370
224.37003 135.64626 -424.70251 4287584370
223.60001 135.32001 -424.28 4287584370
223.57626 135.59875 -424.65375 4287584370
224.53999 134.97 -423.82999 4287584370
222.94 135.35001 -424.32999 4287584370
222.92 135.00999 -423.82999 4287584370
225.11749 138.21001 -425.12497 4291527452
225.80428 138.43715 -425.45142 4291527452
225.12288 138.37144 -425.44144 4291527452
225.08998 137.73143 -424.97427 4291527452
225.03833 136.93666 -424.97498 4291527452
224.40666 138.11334 -425.12 4291527452
223.91 138.08 -425.16 4291527452
224.38446 138.32332 -425.49109 4291527452
223.595 138.25626 -425.48563 4291527452
224.311 137.63699 -425.04803 4291527452
224.44286 136.97713 -425.04288 4291527452
223.70001 137.64333 -425.12833 4291527452
223.73334 137.05666 -425.13 4291527452
223.408 137.81 -425.22998 4291527452
223.37688 136.85001 -425.21121 4291527452
222.88364 138.18454 -425.7218 4291527452
222.94084 137.68916 -425.36746 4291527452
222.91667 136.93083 -425.30667 4291527452
223.528 136.16899 -425.05402 4291527452
223.24001 136.53999 -425.22 4291527452
222.72833 136.34999 -425.25751 4291527452
228.09 134.53999 -423.5 4281449058
228.36499 133.785 -422.57001 4281449058
228.06 134.25999 -423.13 4281449058
227.44667 134.59999 -423.54004 4281449058
227.5 133.935 -422.69 4281449058
226.66 134.57001 -423.44 4281449058
226.00999 134.53 -423.32999 4281449058
228.33 135.10001 -424.23999 4281449058
228.06374 135.53125 -424.70627 4281449058
227.95 134.86 -423.89999 4281449058
227.39999 135.145 -424.245 4281449058
227.36954 135.62183 -424.72089 4281449058
226.61501 136.0475 -424.82126 4281449058
226.515 135.21249 -424.26251 4281449058
226.54184 135.62909 -424.67542 4281449058
227.38 134.92999 -423.97 4281449058
226.83 134.98 -424 4281449058
225.77333 135.28999 -424.30664 4281449058
225.81 134.89 -423.79001 4281449058
228.16875 138.38625 -424.74814 4286193249
228.04099 138.61301 -425.50601 4286193249
228.87729 137.70726 -424.57727 4286193249
228.86099 136.95901 -424.65302 4286193249
228.02284 137.77 -424.63428 4286193249
228.04143 136.79715 -424.76855 4286193249
227.48857 138.38858 -424.76855 4286193249
226.5636 138.30666 -424.83276 4286193249
227.38498 138.57498 -425.54901 4286193249
226.7175 138.54375 -425.53748 4286193249
227.33778 137.67668 -424.66 4286193249
227.27501 136.88167 -424.77335 4286193249
226.577 137.68399 -424.69995 4286193249
226.63 136.91142 -424.79428 4286193249
226.05624 138.25 -424.9675 4286193249
225.8457 137.68787 -424.82932 4286193249
225.85167 136.82001 -424.87671 4286193249
228.86919 136.25917 -424.87329 4286193249
228.07625 136.16626 -424.90002 4286193249
227.36554 136.17221 -424.85339 4286193249
219.22 130.935 -419.41998 4286728313
218.255 130.98 -419.42999 4286728313
217.71001 130.8 -419.28 4286728313
216.91501 131.005 -419.435 4286728313
219.17 127.735 -417.34 4286728313
219.205 129.44501 -418.315 4286728313
219.27499 128.67 -417.84003 4286728313
218.125 128 -417.46002 4286728313
218.56 130.2 -418.84 4286728313
218.51001 129.31667 -418.21997 4286728313
217.53 130.39999 -418.97 4286728313
217.625 129.515 -418.33499 4286728313
218.45 128.72 -417.85001 4286728313
217.595 128.82999 -417.91501 4286728313
216.905 130.25 -418.85001 4286728313
216.685 129.255 -418.16498 4286728313
216.86 129.74001 -418.48001 4286728313
221.63501 130.89999 -419.46002 4279014993
220.45999 130.95999 -419.47501 4279014993
222.33499 127.83501 -417.55499 4279014993
221.38499 127.88499 -417.505 4279014993
220.58499 127.965 -417.495 4279014993
222.66 129.14999 -418.29001 4279014993
221.89999 130.175 -418.92499 4279014993
222.41 129.55 -418.51999 4279014993
222.72501 128.60501 -417.98499 4279014993
221.89333 128.66667 -417.95667 4279014993
221.72 129.2 -418.26001 4279014993
221.34 129.61 -418.5 4279014993
220.895 130.285 -418.95499 4279014993
220.77 129.21001 -418.20999 4279014993
220.32001 129.63 -418.47 4279014993
221.14 128.60501 -417.87 4279014993
220.35001 128.42 -417.72 4279014993
219.80499 130.235 -418.88501 4279014993
219.85001 129.24001 -418.20001 4279014993
220.11 128.82001 -417.95001 4279014993
225.85001 131.28 -419.98001 4285900450
225.15999 131.58333 -420.20999 4285900450
225.245 131.10001 -419.80499 4285900450
225.44 130.07001 -419.03 4285900450
225.28999 129.73 -418.79001 4285900450
225 130.34 -419.20001 4285900450
225.10001 128.84 -418.26001 4285900450
224.50334 130.92668 -419.63 4285900450
223.58 130.94 -419.58997 4285900450
222.58 131.39 -419.89999 4285900450
222.64999 130.825 -419.44501 4285900450
224.44 129.89 -418.85999 4285900450
224.67999 129.39 -418.56 4285900450
223.94 130.28 -419.10001 4285900450
223.53999 129.48 -418.54999 4285900450
222.99001 130.10501 -418.92999 4285900450
228.50999 130.75 -419.73001 4287069302
227.57001 130.7 -419.63 4287069302
227.67 131.19 -420.01001 4287069302
226.75 130.77666 -419.62668 4287069302
225.92001 130.87 -419.65002 4287069302
228.32001 129.48999 -418.85999 4287069302
228.17999 130.25 -419.34 4287069302
228.57001 128.39999 -418.26999 4287069302
228.36 128.89 -418.51001 4287069302
227.41 129.88 -419.04001 4287069302
227.53 129.3 -418.69 4287069302
226.64 130.05 -419.10001 4287069302
226.64 129.60001 -418.81 4287069302
227.19 130.34 -419.32999 4287069302
226.5 130.41 -419.34 4287069302
227.24001 128.57001 -418.26001 4287069302
226.41 129.03999 -418.45001 4287069302
226.04001 130.005 -419.03003 4287069302
225.75 129.42 -418.63 4287069302
225.83 130.41 -419.29999 4287069302
225.94 128.45 -418.10001 4287069302
225 140.72501 -432.255 4286777193
225.06401 140.76401 -432.95001 4286777193
224.20801 140.59399 -432.25 4286777193
223.67003 140.42857 -431.56714 4286777193
223.64001 140.49834 -432.27664 4286777193
223.00999 140.345 -431.76001 4286777193
223.04501 140.36499 -432.29498 4286777193
222.847 140.228 -431.46503 4286777193
222.60667 140.24333 -432.17334 4286777193
222.15834 140.09001 -432.13 4286777193
224.17999 140.57001 -432.97 4286777193
224.345 140.49001 -433.815 4286777193
223.57666 140.42665 -432.9567 4286777193
223.3 140.3 -433.34 4286777193
222.74001 140.2 -432.98001 4286777193
226.45 139.60001 -429.48999 4278327825
227.26602 139.196 -428.534 4278327825
228.08398 140.474 -430.71002 4278327825
228.13332 140.84001 -431.60666 4278327825
228.13 141.00999 -432.26999 4278327825
227.35251 139.98625 -430.005 4278327825
226.57999 140.53401 -430.98398 4278327825
226.694 139.978 -430.12201 4278327825
226.45 140.20999 -430.5 4278327825
227.3425 140.7825 -431.42999 4278327825
227.45 140.98668 -432.34668 4278327825
226.61665 140.75334 -431.48666 4278327825
226.6675 140.9225 -432.26501 4278327825
225.95667 140.39999 -430.84335 4278327825
225.88335 139.95667 -430.15665 4278327825
225.97 140.20001 -430.51501 4278327825
225.96715 140.68857 -431.52432 4278327825
225.80666 140.84001 -432.29333 4278327825
231.92999 133.75 -422.82001 4286723359
230.86 133.75999 -422.73001 4286723359
231.14999 134.03 -423.10001 4286723359
231.11 133.12 -422.03 4286723359
230.96001 132.55 -421.44 4286723359
231.67999 133.39999 -422.39001 4286723359
229.56 133.78 -422.64999 4286723359
230.325 131.57501 -420.51501 4286723359
229.56665 131.66667 -420.53333 4286723359
230.47 132.87 -421.72 4286723359
230.32001 132.17999 -421.04999 4286723359
229.735 133.005 -421.80499 4286723359
229.73 132.59 -421.39001 4286723359
230.42 133.44 -422.32001 4286723359
230.34 131.82001 -420.73001 4286723359
229.02499 133.20499 -421.965 4286723359
234.84 132.12 -421.35999 4289998170
233.95 132.85001 -421.98999 4289998170
233.85001 132.11 -421.26999 4289998170
234.10001 132.435 -421.59 4289998170
233.98 133.52 -422.73001 4289998170
234.14999 131.75 -420.97 4289998170
232.56 131.44 -420.57001 4289998170
231.91 131.62 -420.67999 4289998170
231.2 131.505 -420.52502 4289998170
233.12 132.08 -421.17999 4289998170
233.33 132.48999 -421.58002 4289998170
232.48 132.98 -421.98999 4289998170
232.57001 132.36 -421.39999 4289998170
232.53999 132.62 -421.64001 4289998170
233.09 133.35001 -422.45999 4289998170
232.75 131.75 -420.85999 4289998170
231.88 132.2 -421.19 4289998170
231.735 132.66501 -421.62 4289998170
231.41 131.88 -420.85999 4289998170
231.79999 139.675 -428.87 4288700195
231.62 139.87 -429.45502 4288700195
231.17999 139.63 -428.91 4288700195
231.01668 139.71333 -429.20667 4288700195
231.71001 138.87 -426.34003 4288700195
231.04999 138.84 -426.47998 4288700195
231.815 139.01001 -427.14502 4288700195
231.065 139.13501 -427.73999 4288700195
231.1825 139.44501 -428.47748 4288700195
230.33667 138.76666 -426.33334 4288700195
229.60999 138.702 -426.36798 4288700195
230.42999 138.87 -427.01999 4288700195
230.3 139.125 -427.92999 4288700195
229.69501 138.99001 -427.72 4288700195
229.52499 138.76001 -426.92499 4288700195
230.465 139.3575 -428.46747 4288700195
229.65999 139.32335 -428.58334 4288700195
228.83 138.92999 -427.79001 4288700195
229 139.17999 -428.40002 4288700195
234.91 139.82001 -428.72498 4285866251
234.076 139.69 -428.57797 4285866251
234.215 138.995 -426.34 4285866251
234.95 139.55 -427.85999 4285866251
234.09399 139.18599 -427.07803 4285866251
234.25 139.41 -427.73001 4285866251
232.71001 139.67 -428.67999 4285866251
233.43666 138.89334 -426.23331 4285866251
232.34 138.87 -426.28 4285866251
233.13 139.09 -427.10001 4285866251
233.39667 139.35667 -427.80002 4285866251
232.5 138.94 -426.70999 4285866251
232.61833 139.34334 -427.90002 4285866251
233.53999 139.55 -428.28 4285866251
232.38 139.52 -428.35999 4285866251
231.91667 139.24667 -427.87 4285866251
231.85001 139.49001 -428.44 4285866251
230.78999 134.39 -423.54001 4290288379
230.27 134.11 -423.10999 4290288379
229.84 134.45 -423.51999 4290288379
229.31 134.2 -423.14999 4290288379
228.875 134.42999 -423.40997 4290288379
231.14166 135.505 -424.83667 4290288379
231.08751 134.755 -424.065 4290288379
231.33 135.05 -424.45001 4290288379
229.576 136.879 -424.66595 4290288379
230.37283 136.14427 -424.95999 4290288379
230.2 135.09 -424.41 4290288379
230.34091 135.47545 -424.79999 4290288379
229.46875 136.26125 -424.89755 4290288379
229.64 135.10001 -424.38 4290288379
229.59776 135.45001 -424.73111 4290288379
230.23599 134.88199 -424.15601 4290288379
229.505 134.83499 -424.01501 4290288379
229 135.155 -424.38501 4290288379
228.922 135.45999 -424.70996 4290288379
228.785 134.86 -423.97501 4290288379
232.58398 138.82201 -425.50595 4288996442
231.95285 138.84145 -424.85287 4288996442
231.75166 138.64667 -424.51163 4288996442
231.11201 138.826 -424.91998 4288996442
231.0425 138.52751 -424.57626 4288996442
231.93198 138.84 -425.52399 4288996442
231.07666 138.82001 -425.52335 4288996442
230.84 138.78999 -425.64001 4288996442
230.75 138.78 -426.01999 4288996442
230.91553 137.75111 -424.45331 4288996442
230.535 138.81 -424.92999 4288996442
230.37999 138.51534 -424.61942 4288996442
229.57249 138.55385 -424.75592 4288996442
230.31714 138.77431 -425.43997 4288996442
229.625 138.75429 -425.41574 4288996442
230.35374 137.69124 -424.44998 4288996442
229.60286 137.68715 -424.5 4288996442
228.89999 138.51401 -424.85199 4288996442
228.93332 138.69554 -425.46664 4288996442
234.09001 133.92667 -423.25668 4284977306
233.14 134.17999 -423.51001 4284977306
232.85001 133.85001 -423.04999 4284977306
232.22 134.36 -423.64999 4284977306
231.75 134.14 -423.31 4284977306
234.10599 135.45599 -425.004 4284977306
234.92 134.64999 -424.23999 4284977306
234.8475 134.97 -424.62 4284977306
234.215 134.565 -424.095 4284977306
234.16667 134.95667 -424.57666 4284977306
233.47197 135.35599 -424.95697 4284977306
232.57942 135.35944 -424.84778 4284977306
233.36 134.67 -424.17499 4284977306
233.39 135.01001 -424.625 4284977306
232.69501 134.67499 -424.11499 4284977306
232.675 134.995 -424.53 4284977306
231.89615 135.44305 -424.80002 4284977306
231.94751 134.755 -424.14999 4284977306
231.86 135.05 -424.5 4284977306
234.06799 137.692 -423.97797 4282272325
234.18042 136.91208 -424.28003 4282272325
233.52 138.83 -424.37 4282272325
233.20401 138.832 -424.84198 4282272325
233.28334 138.39333 -424.06168 4282272325
232.67499 138.83383 -424.81467 4282272325
232.56 138.39134 -424.18332 4282272325
232.27 138.77 -424.45999 4282272325
233.38335 137.62749 -424.01749 4282272325
233.40335 136.92223 -424.26443 4282272325
232.55 137.64667 -424.1217 4282272325
232.677 137.061 -424.24799 4282272325
232.65001 136.67665 -424.45337 4282272325
231.94453 138.3291 -424.32364 4282272325
231.854 137.68668 -424.28131 4282272325
231.9411 137.12889 -424.35114 4282272325
231.67599 136.81601 -424.51801 4282272325
231.33499 137.87 -424.41501 4282272325
231.11223 136.87445 -424.5722 4282272325
234.06284 136.18143 -424.81717 4282272325
233.32376 136.26064 -424.7869 4282272325
232.67545 136.20091 -424.81454 4282272325
231.87636 136.20181 -424.84085 4282272325
231.17307 136.27077 -424.86618 4282272325
230.375 136.82999 -424.673 4282272325
237.16 133.75 -423.25 4282062260
237.14999 132.48 -421.87 4282062260
237.37 133.19 -422.62 4282062260
236.88 132.05 -421.44 4282062260
236.85001 134.60001 -424.29999 4282062260
236.5 133.77499 -423.23999 4282062260
235.53 133.59 -422.92999 4282062260
235.63 133.95 -423.39001 4282062260
234.94 133.61 -422.89999 4282062260
234.86398 133.90201 -423.26797 4282062260
234.42 133.64 -422.89999 4282062260
236.11 132.41 -421.73999 4282062260
235.89999 132.07001 -421.39999 4282062260
235.3 132.39999 -421.66 4282062260
236.425 133.08499 -422.44 4282062260
235.75999 133.31 -422.63 4282062260
236.41501 131.595 -421 4282062260
235.42999 131.77 -421.09 4282062260
234.7825 132.50999 -421.72 4282062260
234.81 133.29001 -422.53 4282062260
236.23 134.25 -423.82001 4282062260
235.60001 134.47 -424.04498 4282062260
240.17999 130.75 -420.565 4293335022
240.70999 131.67 -421.255 4293335022
240.14 131.39999 -421.01999 4293335022
239.27499 130.73001 -420.48999 4293335022
238.58 130.85001 -420.54498 4293335022
237.60001 130.92 -420.54001 4293335022
237.38 130.57001 -420.26001 4293335022
239.64001 131.655 -421.19501 4293335022
239.5 131.17999 -420.83502 4293335022
238.78 131.59 -421.12 4293335022
238.36 131.19 -420.78 4293335022
238.14999 131.41 -420.95001 4293335022
237.42999 131.64 -421.10001 4293335022
237.39999 131.25 -420.78 4293335022
239.55 130.17 -420.14001 4293335022
238.37 129.82001 -419.84 4293335022
238.34 130.35001 -420.17999 4293335022
240.32001 133.85001 -423.32001 4289688014
240.12 132.39499 -421.83002 4289688014
240.235 133.255 -422.66 4289688014
239.42999 133.845 -423.35001 4289688014
238.64999 133.92999 -423.48001 4289688014
238.02 133.66 -423.17001 4289688014
239.16 132.35001 -421.785 4289688014
239.58333 133.11333 -422.52002 4289688014
238.86 133.23 -422.66501 4289688014
238.125 132.41499 -421.84 4289688014
238.11 133.17 -422.60999 4289688014
240.13 134.23 -423.79999 4289688014
238.94 134.24001 -423.87 4289688014
237.78999 134.5 -424.22 4289688014
237.89 134.11 -423.72 4289688014
237.17 134.25 -423.87 4289688014
237.03 139.98 -429.09 4279124015
237.20999 139.95999 -430.01001 4279124015
