# .PCD v0.7 - Point Cloud Data file format
VERSION 0.7
FIELDS x y z rgba
SIZE 4 4 4 4
TYPE F F F U
COUNT 1 1 1 1
WIDTH 1409
HEIGHT 1
VIEWPOINT 0 0 0 1 0 0 0
POINTS 1409
DATA ascii
352.01001 136.48 -455.04001 4210998
351.35001 136.75999 -454.97 4078900
350.39001 137.25999 -451.66 5197642
350.56 137.17999 -451.26001 5197642
351.17001 136.96001 -451.54999 4934973
348.78 137.81 -451.82999 5263174
351.56 131.03999 -442.34 7826268
352.14001 131 -442.62 7235661
350.01001 135.99001 -446.17001 6249043
350.79999 137.08 -452.51999 5130304
351 136.89 -454.12 4736062
352.48001 113.82 -451.32001 1709841
352.26001 113.75 -451.10001 2365457
352.20001 113.66 -451.35999 2037266
349.48999 137.5 -454.85001 3487022
349.67999 137.46001 -455.04001 3685166
351.39999 136.78 -456.92999 3485220
351.56 136.60001 -457.48001 3027490
351.06 136.84 -457.28 3353890
350.48001 136.62 -447.84 5721661
351.23001 136.33 -448.03 5787979
351.20001 136.53999 -448.57001 5065025
349.98001 134.96001 -444.48999 7233364
351.70999 117.26 -445.45999 3880486
351.14001 117.38 -444.95999 4472117
348.66 137.89999 -455.35001 3945006
350.92999 115.31 -446.25 4142373
350.57001 115.41 -445.94 4535597
350.41 115.05 -446.10999 4207129
349.92999 114.25 -446.48001 4273702
350.26999 114.39 -446.57999 4077103
349.95001 114.36 -446.38 4273702
349.76001 114.26 -446.34 4471074
348.5 115.67 -444.42999 3616550
349.82001 133.33 -442.76001 6773074
352.98999 129.58 -442.54999 7299149
352.92001 129.23 -442.44 7560262
353.56 129.35001 -442.79999 7298374
349.73999 127.03 -440.98001 9004877
349.29001 119.28 -442.73001 4406583
349.98001 129.27 -441.14999 14665699
350.48999 129.39 -441.35999 16166301
350.20001 129.75999 -441.29999 11983543
350.76999 136.34 -447.5 5854544
349.54001 134.81 -444.01001 7036245
350.03 135.32001 -445.06 7364442
350.57001 135.03999 -445.03 6905430
350.45999 135.38 -445.48999 6446678
349.64001 137.27 -449.26001 4213059
350.79001 136.91 -449.5 4933965
351.03 136.75 -449.10001 4933192
351.23001 136.75999 -449.72 4670279
349.39999 134.28999 -443.29999 7494229
348.42999 137.74001 -457.25 3158321
348.39999 137.87 -452.53 4606017
349.87 130.10001 -441.23001 9472651
349.37 112.23 -452.10001 1841944
349.25 112.51 -457.25 4212291
349.76001 112.75 -457.07001 4212291
349.73001 112.66 -456.66 4212291
349.73001 112.33 -453.87 4212291
350.29001 112.55 -453.85001 4212291
350.47 136.81 -448.44 5392956
349.14999 114.2 -445.95001 4273962
350.51001 137.17999 -450.87 5262922
351.10001 136.94 -450.76001 4738365
350.97 137.02 -451.12 4934981
351.48999 118.52 -444.67999 3092005
351.23001 119.03 -444.23999 3485227
350.42001 116.7 -444.85999 4472876
350.23001 117.26 -444.39001 4275769
349.01999 121.09 -441.91 6051396
349.48001 121.15 -442.12 5723721
349.35999 120.59 -442.23999 4803137
349.70999 136.78999 -447.39001 5656903
349.42001 136.92999 -447.45999 5656399
349.19 112.18 -453.97 4212291
350.67001 112.97 -451 1971731
351.03 113.2 -450.67999 1972752
349.25 112.4 -456.25 4212291
349.25 112.45 -456.75 4212291
349.42999 112.48 -456.29001 4212291
350.98999 132.31 -442.70999 7169118
351.51001 132.53 -443.14999 7234138
350.69 132.94 -442.95999 6839898
355.35999 133.64999 -447.04999 5985353
354.54999 133.75 -446.45001 5526863
355.07999 133.39999 -446.48001 5789008
349.62 132.88 -442.35999 6838862
350.23999 132.78999 -442.60999 6970700
350.66 134.52 -444.35999 6971220
350.12 134.56 -444.04001 6709333
349.26999 122.53 -441.56 6641748
350.92999 119.45 -443.79001 3485993
350.84 118.81 -444.01001 3879981
349.31 137.63 -456.13 3420202
349.67001 137.50999 -456.14001 3158308
349.51001 137.53 -456.35001 3223852
349.23001 137.69 -455.34 3093551
350.03 112.58 -454.82001 4212291
350.42001 112.77 -455.17999 4212291
350.48999 112.74 -454.72 4212291
349.51001 137.48 -456.75 3158308
349.66 113.86 -446.85999 4076322
352.47 136.28 -455.14999 4144953
352.32999 136.37 -454.78 4276791
352.76001 136.2 -454.82001 4211003
352.95001 136.08 -455.25 4209973
353.25 136 -454.87 4603452
353.57999 135.82001 -455.34 4276283
349.89001 135.75 -445.66 6709597
350.03 137.33 -450.51999 4935749
351.5 117.69 -445.07999 3158301
350.53 116.21 -445.26999 4800562
350.60001 117.64 -444.42001 3750191
350.16 112.55 -454.32999 4212291
349.57001 112.44 -454.92001 4212291
348.85999 112.25 -455.75 4212291
350.44 137.13 -453.45999 4736057
349.39999 137.44 -453.64001 4277056
350.41 113.55 -448.38 3154712
349.54999 136.97 -447.73999 5525065
349.17001 137.03999 -447.53 5722960
349.97 115.08 -445.79999 5194288
349.67999 115.31 -445.39999 5129526
350.42999 112.59 -453.45001 1972749
350.35999 130.23 -441.47 8416601
349.82001 128.66 -441.04999 14739422
352.23999 114.14 -449.41 3023376
351.70001 113.77 -449.67001 2499350
352.42999 136.39999 -450.59 4278596
351.72 136.67999 -450.67999 4737605
351.76999 136.60001 -450.09 4605505
348.92999 137.75 -456.19 3158321
351.85001 133.25 -443.88 6970190
352.35001 133.35001 -444.29999 6511182
351.75 135.42 -446.78 6116687
351.34 135.41 -446.37 5986640
351.94 135.11 -446.38 6182730
352.16 132.87 -443.78 6774354
351.64001 133.11 -443.64999 6839884
350.39999 133.49001 -443.20001 6575953
351.29001 134.14 -444.35999 6379855
351.34 134.39 -444.69 6577491
349.85001 121.44 -442.22 5524547
352.20999 136.39 -455.42001 4078388
350.98999 131.02 -442.03 7956828
352.57999 130.78 -442.73999 7300182
353.01001 130.61 -442.89001 7365446
350.82999 123.93 -441.92001 8876892
351.17001 123.83 -442.14001 8812380
350.09 122.2 -442.09 5591620
352.59 124.56 -442.79001 8812636
352.79999 125.15 -442.70999 9007964
352.20001 124.75 -442.45001 8549719
351.56 128.17999 -441.73001 8679250
355.29999 127.55 -443.81 7693897
355.22 127.81 -443.73001 8020816
354.84 127.43 -443.54999 8548436
349.64001 112.39 -454.42999 4212291
348.85001 112.25 -456.25 4212291
350.85999 112.96 -455.64999 4212291
349.67001 112.73 -457.23001 4212291
349.79001 112.8 -457.23001 4212291
350.17001 114.17 -446.79001 3748644
350.54999 114.23 -447.04999 3747874
350.45001 114.33 -446.79999 3748393
350.91 112.82 -453.85001 1775893
350.48001 112.87 -456.07001 4212291
350.92001 137.06 -456.16 3223592
350.87 137.03 -456.70001 3223592
350.41 137.25999 -456.17001 3158566
352.98999 135.99001 -457.04001 3947314
352.82999 135.99001 -457.48999 3947314
352.47 136.23 -457.23001 3945770
349.25 137.49001 -457.25 3158310
349.79999 127.98 -441.01999 9469036
350.04999 115.38 -445.62 5129002
349.98999 115.6 -445.38 4669231
351.22 136.89999 -452.92999 4868931
351.06 136.92 -453.42999 4802626
351.67999 136.7 -456.37 3551259
351.75 136.64999 -455.95999 3815970
352.12 136.48 -456.29999 3618350
349.75 112.83 -457.75 4212291
350 112.99 -457.75 4212291
350.04999 112.94 -457.32999 4212291
350.73001 112.78 -454.34 4212291
351.03 112.97 -454.95001 4212291
351.67001 136.52 -449.37 4736574
349.85001 134.39999 -443.66 6838870
350.60001 136.12 -446.92001 5789507
350.48001 136.06 -446.70001 5855052
350.10999 121.87 -442.20999 5393479
350.44 122.4 -442.22 6312257
350.78 124.44 -441.73999 8352860
351.73001 136.75 -452.04999 4804180
350.97 137.03999 -452.06 5130304
352.51999 136.34 -454.42001 4276791
350.04001 137.00999 -448.64999 5064511
350.38 135.67999 -445.95001 6511951
350.53 135.87 -446.42001 6314322
351.12 135.64999 -446.60001 6117966
351.07001 133.48 -443.57999 6837833
350.84 120.73 -443.14999 4011046
350.35001 120.41 -442.89999 4209713
351.39001 113.06 -454.37 4212291
351.67999 113.15 -453.76999 1448469
349.60001 114.22 -446.23999 4602405
349.67999 114.16 -446.39001 4470818
351.85999 131.24001 -442.59 7367257
350.48001 137.06 -449.73001 4934474
350.79999 136.97 -449.97 4999756
350.28 137.19 -450.07001 5000519
350.84 135.57001 -446.17999 6511183
350.72 135.45 -445.85001 6904917
352.03 124.12 -442.57001 9337176
351.79999 123.48 -442.69 9472098
352.31 123.83 -442.92001 9073504
349.07001 113.99 -446.16 4077610
350.64999 137.09 -450.42999 5197384
352.25 114.03 -449.84 3284752
352.88 114.29 -450.19 1842448
353.01001 114.46 -449.79001 2236173
350.45999 134.88 -444.69 6906197
351.67999 129.49001 -441.91 8350803
351.76999 128.92 -441.87 8085573
352.38 129.33 -442.20999 6709835
350.76999 117.07 -444.87 4407348
350.95999 116.54 -445.34 4931371
350.98001 123.06 -442.31 6711890
351.29999 122.93 -442.57001 9336669
351.5 123.66 -442.41 9009246
351.82001 126.18 -441.95001 8878941
351.32001 125.03 -441.87 9207137
351.25 124.44 -441.98999 8417104
351.76001 124.91 -442.14001 9271391
351.79001 114.18 -448.57001 3024920
351.73999 114.33 -448.19 3090968
351.28 114.05 -448.20999 3417111
350.78 134.84 -444.88 6839893
350.97 134.88 -445.10001 6971219
352.81 132.73 -444.06 6709076
353.82999 132.34 -444.38 6644052
353.29999 132.94 -444.54999 6707534
351.29001 133.02 -443.37 7036503
350.85999 114.43 -447.03 3813403
353.10999 115.77 -447.47 2828570
353 116.1 -447.10001 3157027
352.59 115.76 -447.07999 3156512
350.04001 137.25999 -457.14001 3158566
350.32999 137.21001 -456.79001 3289638
350.10999 137.16 -457.47 3289638
350.20999 113.04 -457.39999 4212291
351.5 113.07 -452.91 1971987
351.81 113.23 -452.62 1775635
350.94 112.82 -452.89999 2234129
351.98999 120.27 -444.35001 2960418
351.45999 119.98 -444.01999 2894354
351.73999 119.29 -444.54999 3027225
352.35999 131.28 -442.85999 7104346
351.89001 134.11 -444.76999 6641746
351.45001 113.04 -453.23999 1775635
352.14999 113.34 -453.23999 1317654
351.79001 113.24 -456.29999 1317399
352.25 113.39 -456.44 4212291
352.26999 113.4 -455.94 1775126
351.66 113.19 -456.98999 4212291
351.60999 113.17 -456.69 4212291
351.39999 113.15 -456.91 4212291
350.70999 134.8 -444.76999 6643540
350.60999 134.87 -444.79001 6774357
350.67999 134.78 -444.70999 6643540
351.17999 135.3 -446.01001 6511186
350.92001 135.25 -445.67999 7036245
351.48999 135 -445.76999 6576464
351.53 122.3 -443.04999 6771524
351.60001 122.88 -442.82999 8350292
351.17001 122.22 -442.78 7956048
350.42001 113.09 -457.23001 4212291
350.29001 113.01 -457.03 4212291
350.5 113.18 -457.75 4212291
350.75 113.24 -457.75 4212291
350.75 113.2 -457.5 4212291
350.59 137.17999 -455.75 3355434
351.62 136.7 -453.81 4276793
352.23999 136.48 -453.98999 4473149
351.03 113.09 -451.29999 2038547
351.44 113.2 -451.70999 2299667
351.48999 113.34 -451.10999 2169367
354.04001 114.01 -454.47 1644050
354.76001 114.32 -454.23001 1774865
354 114.05 -453.69 1382419
352.20001 126.72 -442.10001 8547413
352.60001 127.34 -442.26999 7495753
351.95999 127.2 -441.94 7692874
353.45999 135.14 -447.97 5920333
354.07001 134.91 -448.07001 6115913
353.85001 135.17 -448.45999 6050379
349.92999 136.85001 -447.82001 5722452
351.26999 121.07 -443.37 4207658
351.54999 121.3 -443.53 4931891
351.51999 121.73 -443.31 4605747
351.79001 121.73 -443.57001 4733222
350.73999 122.1 -442.51001 5592389
350.32001 115.47 -445.73001 5061934
350.25 115.26 -445.85999 4535084
352.73001 115.07 -448.01001 3221538
352.14001 114.75 -447.87 3550742
352.63 114.82 -448.32001 3287329
351.09 114.81 -446.75 4009500
351.35999 114.92 -446.85999 3551517
351.17001 114.95 -446.67999 4075041
352.42001 116.67 -446.32999 3681826
352.29999 117.19 -445.92999 3812388
352.23999 135.75999 -447.98001 5853515
352.19 135.50999 -447.39999 5986385
352.82001 135.42999 -447.91 6116172
351.54001 136.78999 -451.14001 5131332
350.95001 115.69 -445.97 4404776
350.92001 116.07 -445.64999 4733481
351.23999 115.95 -445.95999 4340266
350.75 114.53 -446.79999 3878171
349.51999 114 -446.48999 4667428
349.88 114.14 -446.59 4273439
350.60001 114.07 -447.39999 3944218
351.09 114.36 -447.38 3748895
351 137 -455.79999 3617835
351.32999 136.87 -456.07999 3223848
349.75 137.25999 -457.60999 3223584
349.98999 137.25 -457.25 3158566
349.89999 137.23 -457.48001 3158566
349.76999 137.44 -456.42999 3092766
348.73999 137.64999 -457.25 3158313
352.38 126.26 -442.25 8811095
350.31 125.61 -441.28 7890257
349.76001 137.12 -458.25 3289638
349.75 137.23 -457.75 3223584
349.66 137.25999 -457.75 3223584
350.41 128.92999 -441.29001 16383742
350.32999 128.33 -441.22 12032941
350.97 128.62 -441.48999 8744019
351.19 131.37 -442.29001 7892575
351.03 129.2 -441.56 8545849
350.94 112.82 -453.35999 2037781
351.07001 134.72 -444.95001 6905426
351.25 134.75 -445.13 6840143
349.72 112.75 -457.25 4212291
350.53 113.05 -456.84 4212291
350.57001 112.99 -456.47 4212291
350.75 121.35 -442.81 4472370
351.09 113.83 -448.5 3417117
349.95001 137.35001 -456.75 3092767
349.75 137.33 -457.25 3092767
350.25 137.05 -457.75 3289387
350.25 136.94 -458.25 3355178
352.04999 136.58 -453.48999 4474680
351.82999 136.69 -452.97 4474429
352.42001 136.47 -453.14001 4735804
351.47 136.84 -452.48999 4804171
352.57999 114.47 -448.98999 3155477
353.29001 114.72 -449.47 2630169
353.57999 114.99 -449.14999 2761498
352.35001 128.50999 -442.10999 8547657
352.5 128.99001 -442.20999 7233606
355.26001 135.06 -449.92999 5261112
355.48001 135.13 -450.48999 4736055
355 135.27 -450.23001 4801855
351.04001 113 -451.76999 1382161
352.89999 130.22 -442.69 7824969
354.34 129.25 -443.20999 7167304
353.72 128.75 -442.82999 6972489
351.41 130.8 -442.16 7564117
351.19 134.58 -444.84 6774355
350.87 134.72 -444.78 6840149
351.89999 122.37 -443.37 6246713
352.16 122.97 -443.29999 7234393
351.88 122.87 -443.09 7363657
352.23999 121.62 -444.03 3551273
351.89999 118.64 -444.95001 3617068
351.17001 121.58 -443.06 5393214
351.73999 118.1 -445.07001 3485982
352.10999 117.73 -445.51001 3157539
352.17999 118.31 -445.28 3290412
351.60999 136.28999 -448.42999 5131845
351.85001 136.31 -448.84 5065270
352.81 136.34 -452.79001 4802629
352.92999 136.27 -453.42999 4670019
350.13 114.25 -446.64001 4009757
349.88 112.85 -457.26001 4212291
355.25 115.68 -449.78 3286045
354.34 115.26 -449.59 2498844
354.81 115.32 -450.19 1974028
351.78 113.39 -451.60999 2234126
351.89999 113.52 -451.28 2103055
351.64001 126.61 -441.82001 8678228
352.32999 119.49 -444.88 3749679
352.39001 119.08 -445.07001 4209198
352.54999 119.4 -445.03 4209711
352.04001 113.32 -457.29001 4212291
352.20001 113.38 -456.91 4212291
351.89999 113.25 -457.07001 4212291
349.75 112.8 -457.41 4212291
351.35999 113.13 -456.5 4212291
351.38 113.13 -455.98999 4212291
350.94 113.04 -456.29999 4212291
351.14999 114.61 -447.04001 3813396
351.22 114.55 -447.20999 3748380
351.47 114.69 -447.25 3681822
350.94 136.08 -447.17999 5657676
350.04001 137.37 -456.32999 3289374
350.85999 134.64 -444.64999 6708819
351.51999 135.99001 -447.63 6181710
351.82001 136.08 -448.17999 5526605
351.41 135.75999 -447.07001 6051149
350.85001 135.92 -446.81 6052175
352.98999 135.14999 -447.48999 6509900
351.31 136.88 -456.48001 3353890
350.75 113.16 -457.25 4212291
350.91 113.13 -457.01001 4212291
350.66 113.11 -457.06 4212291
351.29999 115.21 -446.56 4076068
351.54999 115.11 -446.82999 3551526
351.07001 120.28 -443.54999 3552555
351.45999 114.87 -447.01001 3616800
351.14999 114.71 -446.92001 3813396
351.5 114.79 -447.14999 3616800
351.75 115.4 -446.75 3747626
351.81 136.58 -455.48001 3946798
351.34 136.82001 -455.60999 3685165
352.16 136.59 -452.57999 4738116
352.47 134.69 -446.14001 6511180
352.88 134.82001 -446.73999 6380109
352.62 118.17 -445.60001 4666924
353.16 118.09 -445.88 5262912
352.95999 118.64 -445.54001 4930870
351.85001 134.28 -444.97 6707537
351.62 134.46001 -445.01001 6707794
352.51999 136.42 -453.60999 4736066
352 136.63 -451.60999 4804689
351.14999 136.71001 -457.70001 3485220
351.42999 136.53999 -457.95001 3027490
351.01999 136.67999 -458.04999 4212291
351.53 113.5 -450.44 2235925
355.19 135.36 -454.20999 4473665
355.19 135.34 -454.64001 4538427
354.66 135.55 -454.35001 4866873
352.25 113.4 -457.75 1315858
351.95999 113.33 -457.67999 4212291
351.95999 113.32 -457.98001 4212291
351.64999 136.7 -456.69 3551259
351.94 136.52 -457.03 3355945
352.60999 131.03 -442.87 7234907
353.41 130.19 -442.92001 7299919
350.94 135.07001 -445.38 6905424
352.17001 132.27 -443.35001 7365975
350.79001 137.03 -455.32001 3618607
351.92999 132.81 -443.59 7036756
353.12 113.68 -454.42999 2168085
353.42999 113.8 -454.13 2167827
352.66 113.53 -453.98999 1907738
353.25 114.04 -452.01001 1645596
353 114.04 -451.51001 1973780
352.60001 113.8 -451.67999 1644560
352.10001 119.13 -444.88 3814443
351.73999 113.24 -454.92999 4212291
351.48001 113.16 -455.44 4212291
354.31 123.81 -444.76999 4470839
354.01999 123.61 -444.64001 3946290
354.17999 123.61 -444.76999 4141874
351.95001 113.32 -455.35001 1907738
355.01999 117.66 -446.76001 3552033
355.39999 117.8 -446.81 3487269
355.04001 118.03 -446.51001 4013090
350.57999 119.03 -443.70001 3880494
352.51001 118.67 -445.32001 4208938
352.20999 118.74 -445.10999 4011566
350.38 114.71 -446.35001 4142885
352.38 136.05 -448.87 5196610
352.29001 136.24001 -449.32001 5130307
352.45999 136.47 -452.16 4998722
353.07999 121.89 -444.53 3222038
353.09 121.41 -444.63 3750439
353.45999 121.85 -444.73001 4076848
351.84 134.69 -445.57999 6511954
354.73999 134.92999 -448.89001 5591372
355.17999 134.67999 -448.76001 5723202
355.17999 134.89 -449.32999 5787977
352.73001 135.64 -448.29001 5788229
352.35001 135.89999 -448.44 5459522
353.45999 135.95 -450.17999 4737090
353.92001 135.71001 -450.04999 5195071
354.26999 135.69 -450.76001 4278592
352.5 135.14 -446.98001 6510922
351.26001 136.53 -458.25 3027227
350.57999 137.03 -457.26001 3223592
352.37 136.34 -456.73001 3749669
355.73001 135.14 -454.85001 4801858
355.29001 135.25 -455.14999 4604213
350.73999 136.74001 -458.25 4212291
350.75 136.74001 -458.23999 4212291
353.70001 117.93 -446.14999 4405552
353.29999 117.55 -446.23999 3946024
351.95999 123.29 -442.92001 8875870
356.13 127.56 -444.35001 7496778
356.14999 127.13 -444.47 6379595
356.66 127.55 -444.70001 6511173
352.37 113.44 -455.04999 1317399
352.13 113.35 -454.44 4212291
353.5 136.05 -453.14001 4146238
354.38 135.72 -453.06 4540481
354.06 135.8 -453.92999 4474175
352.60999 136.21001 -455.60001 4078643
353.17999 135.96001 -455.79999 4013369
351.76999 113.26 -458.25 4212291
352.01001 113.28 -458.07001 0
351 113.33 -458.25 4212291
351.25 113.33 -458.25 4212291
351.23001 113.31 -458.03 4212291
350.98001 113.29 -458.01999 4212291
350.91 113.24 -457.75 4212291
350.75 113.28 -458.01001 4212291
354.32999 114.18 -456.98001 4212291
354.60001 114.25 -457.25 4212291
354.75 114.29 -457.25 2299411
350.79001 113.08 -456.72 4212291
351.17001 114.18 -447.81 3418910
351.63 113.95 -448.97 2892568
352.48001 134.39999 -445.69 6576201
351.72 113.7 -449.98999 2499350
354.56 135.17999 -458.5 3749938
354.35999 135.33 -457.82001 3750455
354.82999 135.14999 -458.04999 3750201
353.04999 136.14 -454.42999 4211511
353.34 136.08 -453.92001 4408124
353.57999 135.92999 -454.45999 4473149
351.66 114.47 -447.79999 3484699
351.87 114.99 -447.23999 3747096
351.95999 114.87 -447.48999 3615765
352.20001 127.84 -442.03 8744012
353.57001 129.84 -442.89999 7693646
352.16 113.86 -450.34 2561551
352.35001 114.53 -448.51001 3483671
350.54999 114.58 -446.57999 4010799
353.5 114.64 -450.14999 2039314
353.87 114.9 -449.92001 2760219
351.48001 120.79 -443.69 3156763
350.84 114.98 -446.44 3878688
352.29999 136.36 -449.89001 4474435
354.62 117.91 -446.44 2499607
354.14001 118.25 -446.09 2695448
354.17999 117.67 -446.45999 2959389
355.53 132.39999 -445.73001 6709592
354.94 132.59 -445.42001 6773586
355.16 132.19 -445.20001 6840397
352.85999 126.78 -442.45999 7629650
351.69 113.27 -457.60999 4212291
351.75 113.25 -457.48999 4212291
351.56 113.26 -457.64001 4212291
351.98999 113.39 -452.13 1905937
352.17001 113.57 -451.72 1905937
351.32001 134.84 -445.35001 6708818
351.51999 134.69 -445.28 6511442
351.25 116.24 -445.75 4603944
351.72 115.05 -447.03 3813414
350.75 136.86 -457.75 3485998
350.14999 114.02 -447.01001 3878423
352.42001 115.17 -447.54001 3221523
353.17999 115.47 -447.87 2566425
352.62 115.45 -447.39001 3090717
354.26999 135.53 -455.60999 4866620
353.89001 135.64999 -455.95999 4472887
354.35001 135.71001 -451.29001 4802114
353.89001 135.89999 -451.44 4868161
353.69 135.94 -450.76999 4933439
351.85999 125.45 -442.07999 9668193
352.32999 125.31 -442.38 8154708
352.42001 125.81 -442.34 8809812
353.10999 130.41 -442.85001 7563340
354.10001 132.63 -444.81 6839889
353.60001 133.14999 -444.97 6510419
353.48001 131.94 -443.87 6840406
352.20001 122.18 -443.76001 4668453
352.04999 113.65 -451.04999 2103055
355.54999 127.12 -444.06 6709073
355.64999 127.54 -444.04001 7300436
351.22 136.84 -450.29001 4869444
355.72 134.17 -448.22 5789006
355.64001 133.91 -447.70001 5985102
356.32999 133.87 -448.37 5721930
351.01999 136.75 -457.75 3485220
352.95999 135.71001 -458.89999 4405562
352.94 135.78999 -458.34 4471351
353.31 135.60001 -458.64001 4601905
351.59 114.62 -447.48001 3616028
352.12 119.71 -444.66 3419424
351.98001 116.34 -446.25 3747611
352.19 115.46 -447.04001 3353632
352.13 114.58 -448.14999 3352599
352.72 119.09 -445.23999 4931629
352.23001 121.07 -444.23001 3090970
352.62 121.67 -444.31 3221272
354.16 114.91 -450.41 2104096
354.20999 114.84 -450.82001 2104862
354.84 115.15 -450.87 2039314
352.81 113.67 -457.42999 4212291
352.73001 113.58 -457.73999 4212291
353.01001 113.75 -457.63 4212291
351.10001 113.11 -456.78 4212291
353.04001 128.85001 -442.47 7233349
353.23001 134.10001 -445.88 6706255
353.20001 134.33 -446.20001 6444111
353.94 113.94 -455.17999 1512720
354.16 114.04 -455.63 4212291
354.38 114.14 -455.26999 1774865
351.85999 113.6 -450.81 1841169
352.39999 113.49 -457.32001 1315858
352.23001 113.41 -457.45001 4212291
352.48999 113.52 -457.5 4212291
352.23999 113.4 -455.53 1317399
351.85999 113.28 -455.76001 1646617
355.63 128.14999 -443.95001 8219736
355.07999 128.17 -443.60999 7955544
355.67999 122.44 -445.63 11559997
355.45001 122.25 -445.5 9268315
355.53 122.05 -445.54999 8808265
351.97 125.88 -442.07001 9271650
351.25 113.17 -457.25 4212291
351.41 134.62 -445.07001 6577490
351.39999 113.26 -457.70999 4212291
351.5 113.25 -457.59 4212291
351.25 113.25 -457.67999 4212291
351.20999 113.27 -457.82999 4212291
351.47 113.28 -457.81 4212291
350.75 136.74001 -458.25 4212291
351.75 136.33 -458.25 3616543
352.51999 136.10001 -457.72 3814704
352.16 136.17999 -458.12 3814186
352.10001 136.34 -457.57999 3814181
354.56 114.68 -452.01999 1841426
355.31 115.06 -452.04999 2103065
354.88 115 -451.51001 2432271
352.5 120.78 -444.51001 3157282
352.54001 120.37 -444.67999 3618346
352.84 120.85 -444.66 3620907
351.79999 136.38 -457.98001 3486497
353.20001 135.75999 -457.85001 4471610
353.69 135.48 -458.45001 3815217
355.28 122.43 -445.42999 9666396
355.57999 122.67 -445.59 9261373
355.41 122.9 -445.51999 7628360
352.81 119.53 -445.10001 5130305
356.10999 134.94 -455.44 4144694
356.20001 134.96001 -455.04001 4341563
356.60001 134.78 -455.26001 4276028
354.10999 135.72 -454.62 4474430
353.70999 135.83 -454.89001 4277053
351.98999 136.14 -448.54999 5262394
352.70001 136.35001 -451.67999 5131338
353.42001 136.07001 -451.41 4933441
353.22 136.13 -450.91 5000004
352.67999 113.97 -451.07999 1775632
352.95999 114.2 -450.70999 1774354
353.60001 114.59 -450.54001 2628376
351.89001 115.23 -446.98999 3485219
354.14001 114.21 -452.98999 1905682
354.03 114.31 -452.37 2234385
353.39999 113.97 -452.57001 1840655
352.67999 113.62 -452.75 1841689
351.54999 136.75999 -453.32999 4212540
352 133.81 -444.51999 6313550
352.42999 133.87 -444.89999 6772048
355.67001 129.06 -443.97 7629653
355 129.42 -443.60001 7431508
354.95001 128.94 -443.53 7234383
352.5 132.42999 -443.64999 6971998
351.91 132.60001 -443.42999 7233621
352.56 135.97 -458.23001 4012088
352.84 135.91 -457.87 4012088
352.23001 136.50999 -451.14001 4476235
351.19 114.79 -446.85001 3813396
352.75 134.09 -445.45999 6837585
352.12 134.33 -445.26001 6642255
352.29999 113.44 -457.19 1185555
352.51001 113.53 -457.01001 4212291
353.94 126.6 -443.12 7628635
351.66 124.32 -442.26999 9075821
350.26001 113.11 -457.75 4212291
350.56 113.14 -457.42001 4212291
353.32001 122.34 -444.57999 3089430
353.5 122.58 -444.64001 3090201
353.31 122.51 -444.54001 3089430
353.23001 123.53 -443.97 6642503
352.69 122.86 -443.89001 5063224
353.17999 122.99 -444.26999 5126188
354.07001 125.76 -443.39001 6708043
354.70999 126.15 -443.73999 5854537
353.88 128.13 -442.92999 7233343
354.51001 128.14999 -443.28 8220248
354.38 128.64999 -443.20001 7299403
352.70999 136.17 -456.25 4144435
352.20001 123.31 -443.13 8547666
352.59 123.63 -443.29001 8348239
352.91 124.35 -443.14001 9599071
353.17001 124.99 -443.03 9535856
355.39999 114.57 -454.47 1513745
355.89001 114.77 -454.26999 1120786
355.39999 114.61 -453.89001 922643
353.04999 113.72 -456.56 4212291
352.60001 113.55 -456.66 4212291
352.84 113.68 -456.92999 4212291
354.26001 115.4 -449.13 2958108
353.98999 115.44 -448.75 3613728
353.66 115.17 -448.85999 3155231
353.39999 134.50999 -446.64999 6379085
352.41 123.2 -443.39999 7167551
352.72 123.36 -443.60999 7426886
354.01001 119.8 -445.35001 3946034
353.57001 119.4 -445.39999 3553329
354.06 118.99 -445.70999 3944480
353.13 119.18 -445.35999 4799285
353.64999 134.89 -447.57999 6248526
352.34 123.27 -443.28 8219719
352.48001 113.53 -457.19 4212291
351.70001 113.29 -457.78 4212291
351.72 113.31 -458 4212291
351.75 113.28 -458.25 4212291
351.89001 113.25 -456.73001 4212291
353.54001 118.63 -445.73999 6905164
352.45999 121.13 -444.37 3025687
352.48999 116.18 -446.70999 3419419
356.06 115.49 -451.95999 2105365
356.75 115.85 -451.95001 2368540
356.45999 115.87 -451.41 2237205
352.70001 113.63 -457.17999 4212291
352.79999 133.49001 -444.76001 6445142
354.39001 125.18 -443.91 6250048
354.87 125.54 -444.12 5587770
354.48999 125.57 -443.79001 6247232
352.26001 131.13 -442.73999 6972757
351.75 136.25 -458.54999 3814181
354.98001 135.48 -451.25 4473919
354.73001 135.57001 -451.32001 4473922
352.89999 136.25999 -451.22 4803658
353.28 136.13 -451.79001 4933441
352.95999 135.73 -448.79999 5787461
352.84 135.98 -449.29999 4999745
350.20999 114.49 -446.42999 4077103
350.82999 114.77 -446.60001 3944222
352.92001 116.53 -446.73001 3222558
353.29999 116.82 -446.73001 2894619
352.92001 117.08 -446.37 3025955
353.48001 115.33 -448.38 2893845
354.09 115.75 -448.34 2303772
352.67999 113.73 -452.16 1644820
353.70001 113.86 -455.81 4212291
353.26999 113.7 -455.51001 4212291
353.17001 134.91 -447.17999 6510158
356.13 134.39 -449.29001 6115143
355.70999 134.39999 -448.73001 5789006
356.38 134.08 -448.85001 6115402
352.57001 113.57 -457.32001 4212291
352.29001 120.29 -444.54999 3224355
357.37 133.52 -448.98999 5525313
357.48001 133.27 -448.67001 5459008
358.03 133.17999 -449.23001 5327679
353.47 113.92 -456.89001 4212291
353.17001 113.81 -456.92999 4212291
353.32001 113.9 -457.17001 4212291
352.26001 113.81 -450.81 2103825
353.91 123.02 -444.79001 3155488
353.57999 123.01 -444.57001 3548957
353.53 122.75 -444.62 3287316
352.32001 122.82 -443.54999 6248514
352.73999 117.63 -445.94 3683370
350.92001 114.69 -446.75 3944471
356.39999 115.5 -452.47 2170645
356.98001 115.8 -452.42001 2170648
352.25 135.92999 -459.25 3684149
351.75 136.10001 -459.25 3814186
352.10999 136.07001 -458.70001 3618094
354.10999 135.34 -458.42999 3488562
354.09 135.25 -459.25 3618865
352.62 135.86 -458.76999 4011830
352.79999 136.13 -449.76001 4803647
351.5 113.18 -457.25 4212291
351.75 113.21 -457.25 4212291
354.31 127.31 -443.25 7497032
353.85001 127.2 -443 7956305
354 126.96 -443.10999 7823941
354.09 130.16 -443.26001 7693402
353 131.17 -443.13 7234389
353.34 131.44 -443.45001 7300443
354.28 131.19 -443.84 6709842
351.82001 134.53999 -445.31 6577489
352.70999 122.31 -444.16 3747865
354.89001 114.64 -452.70999 2168337
354.79999 114.43 -453.47 1840401
355.48999 114.79 -453.25 1645333
353.32001 113.84 -456.69 4212291
352.67001 113.52 -455.51999 2168085
354.37 133.46001 -445.92999 6510670
353.88 133.87 -446.06 6117201
353.5 133.77 -445.63 6444620
353.04001 114.85 -448.75 3024148
353.44 117.15 -446.57001 3747365
354.10001 127.65 -443.09 7299142
352.32999 134.09 -445.10001 6576206
352.95001 136.17999 -450.31 4278077
353.35999 116.47 -447.01999 2958886
353.51001 116.15 -447.38 2892828
354.67999 124.69 -444.5 5458490
354.26001 124.71 -444.09 6639433
354.14001 124.27 -444.29999 6246212
353.26001 135.41 -448.38 5658187
353.92001 133.31 -445.39999 6511694
353.84 124.74 -443.72 8023129
353.72 124.2 -443.95999 6773067
352.56 119.73 -444.91 4538421
354.82001 114.34 -455.66 1513745
355.20999 114.51 -455.32001 1448466
354.75 114.32 -455.22 1644303
356.45999 125.17 -445.62 3947057
356.98001 125.27 -445.92001 3946009
356.91 125.63 -445.67001 3814705
353.56 120.73 -444.92001 7954524
353.26001 121.04 -444.76999 6315087
353.14001 120.61 -444.84 5263163
355.98001 114.92 -453.66 1055249
352.38 119.93 -444.73999 3683632
354.41 116.71 -447.38 2432788
353.82001 116.63 -447.14999 2893337
353.98001 116.3 -447.56 2696223
352.28 120.71 -444.39999 3222561
352.13 115.21 -447.22 3353115
353.75 123.81 -444.26001 5326658
353.51001 123.42 -444.32001 4339505
353.79999 123.26 -444.64001 3943207
353.59 123.24 -444.48999 3944741
353.20001 124.11 -443.56 8350815
353.03 122.24 -444.42001 3219996
352.60001 120.06 -444.81 3749421
355.53 118.39 -446.54001 2236446
355.51001 118.55 -446.48001 2105118
355.31 118.59 -446.37 1973275
352.20001 136.41 -455.84 3881521
356.67999 116.2 -450.51001 2302495
357.13 116.48 -450.35001 2303010
356.56 116.32 -450 2369313
353.13 113.8 -457.73999 4212291
353.12 113.75 -457.85999 2036503
353.35999 113.87 -457.81 4212291
353.79999 120.36 -445.07999 5458752
354.23999 120.36 -445.20001 10711164
355.38 135.39 -451.76999 4670783
355.67001 135.28 -452.5 4670790
355.07999 135.5 -452.01999 4540479
351.95001 136.56 -456.63 3355687
352.79001 136.28999 -453.98001 4407359
355.37 129.99001 -443.95001 6905677
355.88 129.99001 -444.29001 6841430
355.44 130.27 -444.09 6905936
353.57999 135.75 -456.56 4406585
353.73001 135.59 -457.54999 4601905
351.59 136.25999 -458.75 3616543
352.81 120.34 -444.81 4012078
354.53 135.38 -456.06 4209981
355.17001 135.09 -456.39999 4144963
354.48999 135.37 -456.54999 4078642
353.51999 126.83 -442.84 8219215
353.48999 124.83 -443.35999 8612429
353.39999 127.41 -442.70999 8219469
353.04001 128.13 -442.47 7430725
354.09 120.74 -445.06 7298919
353.04999 133.7 -445.17999 6314066
354.79001 135.2 -457.51001 3750200
354.29001 135.42 -457.13 3751218
354.89001 135.17999 -457.09 3948349
353.26001 135.92 -449.72 4671291
353.78 114.36 -451.78 2038028
354.45999 127.01 -443.39001 7562585
354.72 126.67 -443.62 7888458
354.39999 130.59 -443.59 7039321
355.12 130.64999 -444.06 7102555
356.47 115.08 -454.07001 2233366
356.53 115.26 -453.42001 2364440
353.20999 122.63 -444.44 3418653
354.66 115.76 -448.89001 2565650
354.98999 116.19 -448.51999 2367769
353.39999 114.3 -451.26001 2170647
352.82001 119.94 -444.94 4669232
353.14999 119.72 -445.14001 5261372
353.42999 121.41 -444.76001 4873786
353.22 115.08 -448.51999 3155483
354.48001 120.78 -445.17001 9879485
354.57001 120.65 -445.22 13227006
354.67999 120.67 -445.25 13734828
355.07001 118.38 -446.34 3877411
355.44 118.07 -446.66 2762013
356.04001 134.78 -456.32999 3947832
355.76001 134.82001 -456.82999 3947832
353.72 135.96001 -451.84 5064769
354.87 128.50999 -443.47 8022607
353.64999 134.67 -447.14999 6117195
354.35999 134.61 -447.69 6248528
354.66 135.5 -454.88 4866620
354.41 124.26 -444.56 5063739
355.66 134.77 -458.64001 3487023
355.44 134.75 -459.25 3290415
355.23001 134.92 -458.84 4338733
354.42999 114.17 -455.92001 4212291
354.51001 114.2 -455.51999 1644303
353.44 113.76 -454.76999 1185555
353.10999 113.66 -454.70001 2168085
354.79001 114.31 -456.76999 4212291
354.35001 114.16 -456.45001 4212291
353.54001 113.99 -457.34 4212291
353.19 113.86 -457.44 4212291
351.89999 113.26 -457.25 4212291
354.01999 113.94 -458.25 1381905
354.26001 114.12 -458.23999 1972757
353.91 113.91 -458.17999 1381905
352.97 113.61 -455.01999 2168085
352.78 113.57 -456.10999 4212291
355.67999 135.17 -454.39999 4868160
354.95999 134.27 -447.62 5920072
354.45001 119.35 -445.67001 4734772
354.60999 118.53 -446.10001 4339757
354.84 119 -445.98001 3620650
353.47 122.26 -444.67999 3221527
353.72 121.1 -444.89001 8617589
354.95001 119.59 -445.81 4598827
355.07999 120.03 -445.67999 4339229
354.92999 120.13 -445.56 6381665
354.81 114.33 -456.19 1448466
355.20999 114.51 -455.91 1709838
352.76001 113.56 -454.59 1317399
353.10999 120.19 -444.95999 5787956
354.42001 120.62 -445.17999 12769980
353.75 135.38 -459.25 3488562
352.79999 135.74001 -459.25 3879983
352.75 135.75999 -459.25 4208695
354.07999 122.45 -444.95999 4206374
353.75 122.31 -444.82001 3615524
353.91 122 -444.89999 5259313
351.28 136.25999 -459.25 3616543
355.07999 127.21 -443.73999 7956049
353.25 135.57001 -459.25 3815210
354.45001 116.26 -447.94 2565907
354.82001 123.49 -445.23999 2960159
354.82999 123.32 -445.26001 2960159
355.04001 123.52 -445.35001 3419427
356.78 134.74001 -454.09 4276532
357.07001 134.62 -454.01999 4604465
357.03 134.62 -454.39001 4604465
353.89999 123.63 -444.53 4669240
353.75 123.6 -444.42001 4800058
353.76001 123.46 -444.51001 4274737
353.76999 117.42 -446.51001 4012078
354.17001 117.14 -446.88 3090717
353.60999 115.25 -448.66 2696989
354.67001 134.03999 -446.97 5723216
354.17999 134.38 -447.09 6182224
353.72 135.97 -452.39999 4606272
353.12 136.21001 -452.32001 4736835
355.03 114.43 -454.81 1644303
354.5 114.2 -454.85001 1774865
355.04001 135.49001 -451.63 4539712
354.79001 135.58 -451.64001 4474946
353.22 113.86 -457.64999 4212291
354.54001 131.7 -444.34 6972500
355.10999 131.08 -444.31 6840655
355.26999 131.36 -444.60999 6774870
353.60001 113.99 -457.09 4212291
353.5 120 -445.14001 5324085
354.60001 129.67999 -443.41 7169366
354.97 129.82001 -443.64999 7234636
354.53 129.94 -443.42001 7170390
354.45001 114.88 -451.17001 1973260
353.82999 114.6 -451 2038297
354.20999 114.67 -451.48001 1972492
354.75 135.39999 -455.37 4473928
355.03 130.35001 -443.85999 6710098
354.75 130.16 -443.62 7235157
355.41 128.57001 -443.79999 8417881
356.16 128.48 -444.26001 8220511
353.66 134.09 -446.22 6445388
353.87 134.22 -446.57001 6443595
353.29001 113.74 -456.10999 4212291
354.10999 114.14 -457.42999 4212291
354.25 114.16 -457.25 4212291
354.16 114.15 -457.26001 4212291
354.64999 132.98 -445.60999 6183251
352.73999 121.3 -444.48999 3289630
353.72 122.76 -444.73999 3352596
353.98001 122.88 -444.85999 3352342
354.64999 134.75999 -448.32999 6115658
354.48999 125.81 -443.69 6181183
354.91 125.87 -443.98999 5721661
354.17001 125.58 -443.53 6774348
353.53 116.95 -446.75 3747360
353.56 116.77 -446.89999 3222303
353.73001 117.02 -446.79001 3617310
355.85001 119.33 -446.57001 2107946
355.73001 119.29 -446.45001 2171169
355.91 119.06 -446.64001 2042154
355.76999 134.98 -455.75 4078141
356.42001 134.75999 -455.76999 4144449
355.51999 129.56 -443.94 7234897
355.98999 129.64999 -444.26999 7038550
354.14001 129.74001 -443.17001 7496523
354.76999 125.14 -444.26001 5523003
355.16 125.48 -444.39999 4998203
353.41 120.4 -444.97 6645078
353.72 115.91 -447.79001 3024414
356.54999 125.94 -445.23001 3685170
356.31 125.44 -445.35001 4143921
354.10999 123.98 -444.48001 4799799
353.91 123.75 -444.45999 4669240
354.10999 123.79 -444.60999 4471609
353.10999 113.72 -453.45999 1776146
353.5 113.92 -453.09 1775891
355.63 115.44 -451.32001 1974296
354.20001 135.8 -452.20001 5129795
356.01001 133.19 -447.07999 5920590
356.01001 133.37 -447.29001 5985359
355.63 133.32001 -446.89001 5920077
356.82999 133.77 -448.79001 5525315
356.89001 133.58 -448.51999 5394505
356.44 133.06 -447.31 6182228
356.66 133.22 -447.72 5854024
355.34 135.37 -451.29999 4604476
353.48001 135.72 -449.41 5327687
353.69 135.44 -448.95001 5984328
354.28 135.17999 -449 5590852
354.32999 134.98 -448.51999 5919302
355.29999 135.17999 -455.53 4473660
355.67001 135.08 -455.45001 4277828
354.26001 123.11 -444.98001 2959135
354.32999 123.35 -444.95999 3747366
354.14001 135.64999 -455.12 4669755
354.87 135.5 -453.79999 4671037
355.53 115.57 -450.62 2300696
356.03 122.66 -445.87 6044715
356.04001 122.85 -445.85999 4663069
355.89001 122.57 -445.76001 8804389
354.85999 120.77 -445.29999 9994843
354.63 120.93 -445.19 10658445
353.89999 121.48 -444.92001 10916197
354.22 121.06 -445.04999 6647396
353.75 122.55 -444.79001 3156252
353.94 122.61 -444.89001 3418398
353.94 122.74 -444.87 3418398
354.98001 124.02 -445.17999 4667952
355.26999 123.96 -445.39001 4208426
355.44 124.29 -445.38 4668466
353.25 113.74 -457.97 2429971
353.5 113.75 -458.10001 2103056
353.57999 113.89 -457.97 2103056
353.85999 114.04 -456.76001 4212291
353.87 114.08 -457.16 4212291
353.57999 113.91 -456.54001 4212291
353.94 114 -456.17999 4212291
353.57001 113.85 -456.22 4212291
353 113.77 -457.19 4212291
354.07001 114.13 -457.66 4212291
353.84 114.08 -457.48001 4212291
353.76999 114.04 -457.79999 4212291
355.89001 126.02 -444.70999 4604464
355.39001 126.17 -444.25 5459010
355.32001 125.81 -444.35001 4999488
354.56 135.67 -451.87 4671813
357.89001 116.04 -453.07001 1840656
357.47 115.73 -453.41 2037777
358.09 115.94 -453.79001 1185555
356.70001 115.51 -452.88 2170134
357.13 115.75 -452.76999 2105630
355.23001 135.03999 -456.87 3750974
356.89999 130.78 -445.51999 7828068
356.79001 131.17 -445.70001 8351590
356.48999 131.00999 -445.38 7631712
354.41 121.26 -445.09 7106163
356.66 117.26 -448.31 2168592
356.70999 117.52 -447.92999 2630160
356.35001 117.36 -447.82999 2435087
355.72 115.1 -452.60001 2170131
353.79999 122.71 -444.79999 3156253
354.03 125.25 -443.57999 7561814
355.17999 125.19 -444.60001 4341814
355.57001 125.31 -444.85999 4601903
355.54001 125.6 -444.64999 4470317
354.10999 134 -446.42001 6509901
355.53 115.7 -450.16 2497054
354.89999 135 -459.10999 3748650
354.39999 135.17 -459.23001 3683885
354.82001 121.6 -445.20999 9929328
354.84 121.95 -445.22 9997932
354.57999 121.81 -445.13 9930601
356.34 134.57001 -457.54001 4274478
356.01999 134.7 -457.23001 4012345
356.31 134.60001 -457 4275764
355.31 121.88 -445.42999 10452298
354.76999 124.38 -444.79999 5129274
355.19 124.42 -445.13 5325107
355.26999 124.86 -444.91 5391156
354.26999 135.42999 -449.67999 5065278
354.26001 121.68 -445.03 9538670
354.31 122.14 -445.04999 7762272
356.79001 118.84 -447.23999 1712412
356.79001 118.98 -447.26001 1909017
356.69 118.97 -447.19 1909274
354.60999 117.46 -446.76999 2761743
355.25 120.2 -445.70001 2500135
355.42001 120.26 -445.79999 2567472
355.32999 120.47 -445.64999 3815703
355.28 116.84 -447.73001 2169619
355.56 116.88 -447.89001 2300691
355.48999 117.01 -447.64999 2039319
353.73001 113.86 -458.10001 1775379
353.91 114.01 -458.04999 1775379
353.35999 113.81 -456.44 4212291
355.73999 114.64 -457.25 1578002
356.12 114.87 -456.70999 1120275
355.78 114.73 -456.48001 1643534
354.25 114.17 -458 4212291
354.39999 124.04 -444.70001 4407096
355.98001 116.4 -449.12 2106384
355.37 116.09 -449.04999 2367775
355.67999 116.05 -449.45999 2170906
355.57999 135.22 -453.95001 4736056
355.42001 135.32001 -453.29999 4408640
354.69 123.88 -445.03 3882036
354.73999 123.81 -445.10001 3814958
354.51001 122.67 -445.13 4803366
354.67999 122.27 -445.17999 8091998
354.57999 123.34 -445.12 2828061
353.98001 123.26 -444.76001 3353642
355.06 122.04 -445.31 10125672
355.23999 122.07 -445.39001 9733217
355.42001 119.44 -446.17001 2106150
355.37 119.79 -445.98999 2172715
355.25 119.6 -445.98999 1909540
354.98999 121.57 -445.26999 9929328
355.10999 121.79 -445.32999 9725517
354.95999 121.76 -445.26001 11115627
355.51001 120.01 -446 2240831
355.32999 120.04 -445.84 2237998
355.53 134.85001 -449.70001 5656134
355.73999 134.92 -450.23001 5129785
354.76001 135.47 -450.62 4671044
355.51999 126.63 -444.17999 6117958
356.07999 129.32001 -444.25 7103829
355.12 134.48 -448.19 5855054
355.09 135.2 -455.85999 4473660
356.32999 134.98 -453.32999 4474180
356.98001 134.72 -453.42001 3949370
356.84 134.74001 -453.76001 3949370
354.92999 116.69 -447.70001 2367517
354.91 117 -447.31 2499352
355.95001 117.67 -447.17001 3157533
355.92001 117.8 -447.04999 3157533
355.70001 117.7 -447.03 3487269
355.53 131.78 -445.14999 6513755
355.79001 132.02 -445.59 6972248
355.89999 133.10001 -446.85999 5855055
355.60001 133.07001 -446.54999 5921102
356.13 132.82001 -446.73001 6445907
355.67001 130.92999 -444.63 7168852
355.66 130.64999 -444.45001 6973784
356 130.62 -444.70001 7038819
355.60999 127.8 -443.97 7299413
354.29999 123.51 -444.89999 3747366
354.57999 123.62 -445.04999 3027493
354.53 123.71 -444.98001 3879723
355.32999 135 -457.22 3750456
355.17001 135.07001 -457.41 3750456
355.66 134.86 -457.22 3947571
355.60999 114.66 -455.19 1709838
355.42001 114.58 -454.89999 1448466
354.57999 132.17999 -444.73999 6774611
354.64999 132.48 -445.06 6774620
357.70001 134.33 -452.35001 4801854
357.97 134.14 -452.28 4932920
358.03 134.17999 -452.72 5063738
355.12 133.05 -446.09 6379347
354.32999 132.83 -445.19 6708311
356.07001 130.8 -444.87 6908254
355.73999 131.17 -444.85001 7103567
354.89001 135.56 -452.51999 4409409
356.38 133.67999 -448.10001 6049610
353.44 125.52 -443.03 8087897
358.34 128.78999 -445.67999 6774864
358.67999 128.82001 -445.92999 6379330
358.51999 129.17999 -445.88 7102549
354.22 135.25 -460.25 3355684
354.10999 135.25 -459.75 3552296
354.41 135.14999 -459.91 3421224
356.23999 123.04 -445.98999 3743518
356.44 123.1 -446.10999 5524279
356.44 123.32 -446.09 3286043
355.31 117.25 -447.25 3222305
354.98001 117.33 -447.01999 3155743
356.17001 134.99001 -454.62 4474432
354.92999 135.07001 -458.54001 3684402
354.75 135.00999 -459.75 3813160
356.26001 118.25 -446.98001 1712413
356.64999 118.41 -447.16 1843480
356.29001 118.42 -446.95999 1843745
355.25 116.99 -447.5 2169619
355.59 117.21 -447.45001 2630942
356.84 133.39 -448.16 5460299
356.14001 133.56 -447.67999 5657170
356.73001 132.66 -447.09 6183506
356.23001 132.98 -447.01999 6248524
356.01999 127.94 -444.20999 7761752
354.67999 127.75 -443.42001 7956051
356.23001 130.05 -444.57999 7169364
356.39999 129.74001 -444.57999 7038033
355.89999 135.19 -451.73999 5195076
355.25 114.44 -457.25 1643539
355.29999 114.51 -456.57001 1971223
355.54001 114.65 -456.12 1971223
355.26001 116.68 -447.95001 2104333
356.54999 134.85001 -453.82999 4408636
356.10999 135.03 -453.79001 4671307
354.98999 115.71 -449.35001 2891796
353.60001 122.54 -444.70999 3090201
354.98999 122.35 -445.29999 8157793
354.89999 122.69 -445.29001 7493445
355.25 134.84 -459.25 3683630
355.25 134.75999 -459.75 3421235
353.73001 125.35 -443.29999 8219735
355.16 122.7 -445.39999 7889485
354.45999 123.78 -444.91 4209972
355.06 120.95 -445.37 6178631
354.79999 121.08 -445.23001 8680544
354.25 135.23 -460.25 3355684
354.45999 120.04 -445.39001 8554629
354.70999 119.76 -445.60999 5787976
354.75 120.37 -445.38 11560072
355.07999 118.99 -446.10999 2303263
355.16 118.57 -446.29999 2500379
354.85001 123.05 -445.28 3485477
355.20001 135.03999 -457.78 3684660
355.51001 134.92999 -457.54001 3947571
355.57999 114.66 -455.64001 2299411
354.64999 121.41 -445.16 7501935
354.75 135.03 -460.25 3747877
354.60999 117.11 -447.07001 2695952
355.10999 119.77 -445.82001 4009245
355.20001 120 -445.76001 2237734
355.28 121 -445.5 5523506
355.39999 121.29 -445.54999 5324339
355.20999 121.28 -445.41 7363124
354.25 114.16 -457.5 4212291
357.69 116.13 -452.48999 1909532
357.79001 116.36 -451.92001 2434587
357.32999 116.09 -452.10001 2040351
355.44 135.25999 -450.92999 4604728
354.78 135.13 -449.51999 5458756
357.14001 127.47 -445.01999 6642756
357.10001 127.94 -444.89999 7035977
355.88 114.79 -455.95001 1774354
356.10001 114.89 -456.23999 1185552
356.31 114.98 -455.81 1185552
355.98001 114.82 -455.35001 2233366
358.35999 128 -445.70001 6643534
358.73999 127.62 -446.04001 6576713
358.81 128.11 -446.01001 6314827
356.13 115.17 -453.04999 2103572
357.14999 116.17 -451.54999 2500642
355.03 116.47 -448.10001 1777688
356.60999 130.28 -445.01001 7302748
356.42001 130.17999 -444.79001 7169625
356.60999 129.95 -444.82999 7432280
356.31 130.45 -444.85999 7104856
356.10001 130.35001 -444.63 7037535
355.76001 130.32001 -444.35001 6907221
354.69 124.04 -444.95001 4275763
355.10001 123.32 -445.39999 3550495
356.20001 116.79 -448.64999 1972240
355.64001 116.41 -448.76001 2498074
356.07001 117.32 -447.66 2565914
356.03 117.04 -448.04001 2104087
355.53 116.63 -448.28 2497302
356.60001 134.91 -452.66 4605500
355.60999 134.64 -449.23999 5853513
355.73001 117.89 -446.89999 2763810
355.82999 118.05 -446.85001 1188127
355.35999 119.16 -446.22 1909024
355.53 118.75 -446.44 1973277
355.60001 118.9 -446.45001 2302752
355.66 124.82 -445.25 4602403
356.06 125.09 -445.38 4734007
355.82001 125.2 -445.13 4078382
357.29999 134.10001 -450.39001 5523776
357.29001 133.89999 -449.76001 5656389
357.94 133.63 -450.14999 5524036
355.22 132.73 -445.81 6315598
356.20999 132.17 -446.10001 6906967
356.84 131.99001 -446.42999 6972497
356.5 132.39999 -446.59 6447189
355.76999 132.66 -446.23001 6578515
356.39999 131.46001 -445.63 7695968
356.79001 131.53999 -445.98001 7892314
356.29999 131.82001 -445.84 7367010
355.98001 131.66 -445.44 6908763
359.01001 133.53 -453.07001 4802366
358.97 133.64 -453.47 4933700
358.64999 133.75999 -452.79999 4670784
357.32999 134.28999 -451.10999 4803137
357.98001 133.85001 -451.01001 4868420
357.75 134.17999 -451.75 4999491
356.03 123.94 -445.82001 2631197
356.5 124.21 -446.03 4075311
356.10001 124.2 -445.81 3747884
356.10001 123.2 -445.89999 3612180
357.09 132.82001 -447.63 5854800
356.44 121.76 -446.82001 2762791
356.53 122.07 -446.67999 2701620
356.32001 121.95 -446.48001 3355183
355.98001 114.74 -457.25 1512982
355.59 121.01 -445.75 5457461
355.5 120.99 -445.67001 5457461
355.54999 120.78 -445.76999 5590095
355.94 118.27 -446.79999 1843497
356.10001 118.33 -446.87 1974309
355.91 118.35 -446.76001 1843497
355.48001 120.51 -445.78 2900550
355.39999 120.79 -445.63 3883834
354.54999 120.47 -445.26001 16578544
355.23999 134.99001 -458.29001 4012591
356.07999 115.94 -450.32001 2170135
355.09 131.78999 -444.79999 6840914
356.22 115.88 -450.84 2302496
355.64999 120.19 -446.06 3886695
355.76001 120.08 -446.26999 3031641
355.75 120.47 -446.12 7374981
355.63 134.86 -457.98999 3946545
356.14999 134.61 -458.14001 4274478
356.73001 115.14 -454.56 1511693
356.97 115.26 -454.89999 1579280
357.09 115.33 -454.56 1579280
358.57999 133.53 -451.39001 5195061
358.48001 133.75999 -452.19 4736829
358.17999 133.94 -451.97 4933697
357.56 126.51 -445.63 4798770
357.42999 126.26 -445.67001 4601399
357.79001 126.28 -445.91 4210746
358.35001 127.23 -445.87 6050374
358.54999 126.85 -446.14999 5786174
358.95999 127.18 -446.32001 5919033
354.19 122.82 -444.98001 3680284
356.14999 131.34 -445.32999 7105890
355.82001 131.42999 -445.12 7169114
356.10999 131.07001 -445.10001 7235676
354.95999 121.32 -445.26999 8214602
356.57001 128.02 -444.54999 7036754
356.44 122.61 -446.23999 6708029
356.60999 122.92 -446.28 7558722
356.44 122.88 -446.16 6247223
355 120.56 -445.42999 11234116
357.17999 118.17 -447.69 2565666
357.13 118.21 -447.60999 2565666
357.01999 118.1 -447.60999 2827813
356.54999 115.07 -456.57999 2038551
356.42001 115.04 -456.25 1120275
356.85999 129.69 -444.91 7433303
357.10999 129.06 -444.89999 7302495
357.57001 128.86 -445.17999 7236192
357.59 129.31 -445.28 7827809
356.28 122.67 -446.07999 4931892
355.41 121.05 -445.59 4802612
355.48001 121.16 -445.62 5324339
355.79999 120.85 -446.07999 9484959
355.76001 121.2 -445.92001 6775684
355.67999 120.87 -445.89001 7308407
356.41 130.67 -445.07999 7236958
355.97 125.61 -444.98999 4078390
355.98001 119.43 -446.70001 2305075
356.01001 119.17 -446.73001 2042154
356.09 119.3 -446.81 2108210
355.92001 116.01 -449.87 1711637
355.45999 123.33 -445.57001 3680810
355.59 123.69 -445.63 3288097
355.29001 123.54 -445.48001 3419428
356.14001 122.25 -446.06 6245951
356.13 122.45 -445.98001 5917509
355.98001 122.22 -445.89001 5590070
357.12 117.58 -448.26999 2367001
355.60001 119.24 -446.35999 2171425
355.56 119.61 -446.22 2303018
355.51001 119.15 -446.32999 2039841
358.54001 133.11 -449.84 5195837
358.70999 133.24001 -450.53 5195832
358.66 133.55 -451.91 5130041
354.31 123.61 -444.85999 4273711
355.62 124.57 -445.37 4471587
356.01999 124.83 -445.5 4538438
357.20001 115.38 -455.28 1841174
356.81 115.18 -455.28 1120275
356.75 114.97 -457.25 1644314
356.75 115.04 -457 2956311
356.54001 114.96 -457.10999 1972505
355.48001 131.5 -444.87 6840921
355.84 122.82 -445.73999 4992290
355.73001 123.1 -445.69 4270370
356.60001 121.31 -447.32999 2631723
356.73001 121.27 -447.48999 2566702
