# .PCD v0.7 - Point Cloud Data file format
VERSION 0.7
FIELDS x y z rgba
SIZE 4 4 4 4
TYPE F F F U
COUNT 1 1 1 1
WIDTH 1409
HEIGHT 1
VIEWPOINT 0 0 0 1 0 0 0
POINTS 1409
DATA ascii
17.98 40.119999 -380.32999 2894112
17.879999 39.990002 -380.28 2631200
17.73 40.689999 -380.66 2369311
17.9 40.75 -380.75 2369055
16.83 3.22 -363.20999 2434078
16.709999 3.47 -363.19 2435104
17.450001 -9.6700001 -357.85001 2696992
17.43 -9.4399996 -358.03 2762780
18.51 37.16 -379.42999 2369566
18.82 37.18 -379.54999 2303521
18.17 -12.51 -357.17001 2501158
17.889999 -12.45 -357.17001 2566948
18.059999 -12.73 -357.14001 2567212
17.120001 -9.6700001 -357.70999 2500386
18.870001 -10.77 -357.92001 2696998
18.969999 -11.06 -357.84 2566183
19.01 -10.76 -358.03 2500903
17.91 34.860001 -377.76999 1911070
16.870001 -10.02 -357.60999 2632485
18.49 -10.87 -357.73001 2303772
18.34 -10.97 -357.67001 2041373
18.49 -11.13 -357.63 2369047
18.559999 12.06 -368.20999 2500384
18.73 12.04 -368.20001 2631459
18.700001 12.13 -368.25 2631459
18.299999 12.69 -368.51001 2632227
18.450001 12.65 -368.57001 2632227
18.440001 12.84 -368.67001 2369827
18.77 12.1 -368.23001 2631459
17.940001 13.09 -368.45001 2172956
17.469999 36.009998 -378.01999 2369049
19.33 36 -379.29999 2369570
19.07 36.189999 -379.32001 2303519
19.01 35.990002 -379.16 2173218
17.040001 38.619999 -379.41 2171933
18.700001 12.63 -368.63 2697505
17.549999 14.31 -368.73001 2370088
20.299999 34.709999 -379.07999 3024154
20.41 35.169998 -379.32999 2829091
19.790001 35.060001 -379.01001 2631972
17.43 36.209999 -378.09 2041633
18.309999 36.810001 -379.23999 2631709
18.24 36.66 -379.12 2566177
17.450001 37.369999 -378.88 2238752
17.59 36.360001 -378.29999 2434589
19.26 36.720001 -379.59 2828579
19.209999 36.43 -379.48001 2499355
18.450001 -9.4899998 -358.60001 2304534
18.68 -9.6999998 -358.54001 2301715
18.66 -9.4300003 -358.76001 2369052
19.16 26.299999 -374.25 2499106
19.059999 26.27 -374.17001 2368033
19.17 26.16 -374.17999 2499107
16.860001 26.870001 -373.73001 2566182
18.379999 26.469999 -374.17999 2435617
18.16 26.15 -374 2369827
18.82 26.34 -374.12 2368800
18.92 26.15 -374.07001 2368294
18.940001 26.41 -374.19 2368800
17.639999 27.26 -374.45001 2829349
17.51 27.25 -374.31 2763813
17.6 27.059999 -374.29999 2631968
17.809999 27.84 -374.92999 3485990
17.73 26.35 -374 2893862
17.76 26.16 -373.89999 2828326
18.370001 27.16 -374.59 2304806
18.26 27.27 -374.66 2567208
18.209999 27.15 -374.57999 2304806
17.92 26.01 -373.87 2631721
18.83 27.190001 -374.72 2631972
18.700001 27.440001 -374.87 2633516
18.469999 27.299999 -374.70999 2632992
17.66 9.46 -366.73001 2369056
18.25 9.5799999 -367.04001 2500640
18.049999 9.6499996 -367.01001 2303773
18.08 9.46 -366.92001 2696988
17.74 25.77 -373.70001 2304038
17.59 24.6 -373.48001 2762785
18.49 8.3699999 -366.66 2697259
17.76 25.950001 -373.78 2435364
18.129999 38.400002 -379.76001 2107425
17.66 38.48 -379.60001 2106914
18.190001 36.459999 -378.98999 2435105
17.73 37.34 -379.01999 2566431
18.32 56.099998 -387.57001 2632493
18.09 56.48 -387.70001 3091499
18.129999 56.299999 -387.62 2894890
18.35 56.450001 -387.73001 2829101
19.780001 55.790001 -387.91 2959911
19.59 55.75 -387.79001 3352609
19.709999 55.509998 -387.82999 2763302
17.73 36.66 -378.63 2304027
18.309999 36.459999 -379.07999 2697507
18.52 56.599998 -387.84 2501417
18.75 56.75 -387.97 2699051
18.5 56.75 -387.92999 2829607
18.889999 55.939999 -387.57999 3025446
18.870001 55.73 -387.51999 2893344
19.1 55.799999 -387.57001 2566434
18.42 56.290001 -387.66 2173995
18.67 56.290001 -387.69 2305320
22.57 -4.21 -362.84 2631715
22.559999 -4.0300002 -362.94 2565926
22.440001 -4 -362.79001 2697510
20.43 -3.6300001 -362.29001 3487021
20.24 -3.5799999 -362.26001 3486510
20.34 -3.74 -362.23001 3749420
17.629999 28.15 -375.03 2894887
17.83 56.419998 -387.62 2960935
18.440001 -10.12 -358.14001 2369569
18.610001 -10.17 -358.16 2238753
18.459999 -9.8999996 -358.29001 2434073
19.83 29.040001 -376.04001 2630949
19.639999 29.040001 -375.94 2631454
19.799999 28.73 -375.85001 2893086
17.68 39.779999 -380.20001 2631200
17.77 39.630001 -380.20999 2435362
17.51 29.709999 -375.54999 2696986
17.66 30.41 -376.10001 2369050
18.700001 12.47 -368.5 2631971
18.58 12.6 -368.59 2697507
18.5 12.48 -368.48999 2697508
19.33 14.35 -369.53 2894373
19.17 14.1 -369.42001 2828842
19.42 13.99 -369.5 2566696
17.110001 3.5799999 -363.47 2500125
19.370001 1.25 -363.98001 2566440
19.379999 1.01 -363.84 2632232
17.780001 35.32 -377.91 2434072
17.879999 35.080002 -377.85999 2500886
18.360001 38.610001 -380.06 1451810
18.190001 9.3699999 -366.91 2696988
18.049999 9.3500004 -366.85001 2762268
19.43 8.8699999 -367.17001 2304294
19.49 9.0799999 -367.26001 2173218
19.24 8.9799995 -367.10001 2435356
17.82 3.3299999 -363.87 2434589
17.85 3.1600001 -363.81 2435105
18.17 12.3 -368.25 2697514
18.27 12.35 -368.32999 2697766
18.200001 12.48 -368.35999 2828070
17.959999 37.209999 -379.13 2435118
18.23 9.8400002 -367.17999 2566691
18.49 9.7399998 -367.22 2435366
18.469999 10.07 -367.39001 2500900
20.450001 -0.56999999 -363.60001 2370083
20.690001 -0.43000001 -363.73001 2239010
20.42 -0.31999999 -363.76001 2434845
18.82 1.6 -363.92001 2304293
18.92 1.34 -363.85999 2566438
18.67 8.04 -366.72 2566438
18.190001 32.740002 -377.35001 2500371
18.120001 32.59 -377.23001 2827805
18.24 68.5 -390.92999 2303779
19.049999 1.51 -363.98001 2500903
18.93 1.76 -364.03 2173221
18.09 34.509998 -377.76999 2894109
18.6 35.279999 -378.57999 2631457
18.549999 34.939999 -378.35001 1780002
18.74 27.82 -375.17999 3353382
18.58 28.040001 -375.26999 3090704
18.42 27.870001 -375.13 3092260
19.110001 29.27 -375.87 2368799
18.85 29.290001 -375.85999 2238249
18.07 62.48 -390.19 1252373
18.049999 66.669998 -391.91 2631969
17.9 2.98 -363.85999 2435358
17.389999 14.33 -368.70999 2567214
18.73 -10.51 -358 2435107
18.809999 -10.23 -358.20001 2369827
18.530001 -10.39 -358 2238753
18.32 -10.28 -358.01001 2500385
17.299999 36.970001 -378.54001 2172458
18.5 36.77 -379.32001 2631712
18.719999 36.560001 -379.34 2631715
18 62.529999 -390.13 1252373
17.98 62.529999 -390.10001 1252373
18.08 62.450001 -390.20001 1252373
18.049999 62.450001 -390.17999 1252373
18.049999 62.439999 -390.19 1252373
18.02 62.459999 -390.16 1252373
19.040001 29.809999 -376.34 1844000
18.98 29.91 -376.39999 1451808
18.85 29.75 -376.28 2237732
18.620001 29.209999 -375.76999 2042142
18.73 29.379999 -375.94 2238249
18.15 66.849998 -391.92999 2696994
18.219999 66.650002 -392.01999 2762784
18.75 66.870003 -392.25 2369570
18.83 66.690002 -392.26999 2107170
18.82 66.93 -392.32999 2435103
19.41 12.38 -368.85999 2500903
19.34 12.54 -368.85999 2894372
19.360001 12.49 -368.73999 2501406
18.35 68.379997 -391.39999 2369059
18.32 68.190002 -391.32001 2369570
18.35 68.099998 -391.59 2696995
18.309999 67.889999 -391.54001 2762275
18.34 67.849998 -391.79999 2893606
18.75 68.25 -392.82999 2827304
18.799999 68.080002 -392.78 2566954
18.969999 68.309998 -392.98999 2958110
17.440001 35.139999 -377.60001 2368797
17.700001 2.5 -363.5 2566689
18.67 -11.26 -357.62 2565673
18.85 -11.32 -357.66 2762023
18.799999 -11.02 -357.75 2631464
18.959999 31.07 -376.79001 2238494
19.6 30.379999 -376.70999 2368798
19.35 30.809999 -376.82001 1845278
19.290001 30.5 -376.72 2106140
17.85 3.4100001 -364.06 2238498
18.48 4.3099999 -364.91 2370083
17.98 56.630001 -387.76999 3220778
17.969999 36.439999 -378.76999 2631457
19.700001 35.970001 -379.44 2500896
19.530001 35.810001 -379.26001 2107684
19.870001 35.720001 -379.38 2304801
18.92 -9.7600002 -358.67999 2368533
18.870001 -10 -358.41 2434331
19.07 -10.13 -358.5 2369312
18.16 -10.73 -357.73001 2237727
18.940001 55.529999 -387.48999 2435358
18.65 55.48 -387.41 2762786
18.75 56.549999 -387.84 2502181
19.459999 8.5299997 -367.14999 2435103
17.92 9.4099998 -366.84 2499867
18.860001 30.309999 -376.57001 2303263
19.059999 30.459999 -376.66 2303263
18.799999 8.1300001 -366.78 2762790
18.120001 8.8000002 -366.64001 2434591
18.219999 8.9799995 -366.73001 2696478
18.629999 8.8800001 -366.82001 2566179
18.49 8.71 -366.72 2565925
18.690001 8.75 -366.79999 2566179
18.389999 8.0900002 -366.60001 2500633
18.42 5.48 -365.28 2631980
18.360001 5.6799998 -365.44 2829098
18.459999 4.5300002 -364.89999 2238755
18.6 4.6399999 -365.01999 2435104
18.85 4.6300001 -365.22 2434583
18.73 4.6100001 -365.12 2434583
18.83 4.46 -365.17001 2566692
18.82 9.8699999 -367.41 2369309
19.01 9.6300001 -367.32999 2239268
19.26 9.9399996 -367.62 2500904
18.639999 4.46 -365.04001 2434853
19.379999 11.69 -368.34 3090721
19.450001 11.49 -368.42001 2632224
19.49 11.69 -368.48001 2894372
18.18 11.38 -367.85001 2434083
17.860001 10.56 -367.39001 2370082
18.74 55.240002 -387.35999 2958883
18.25 55.290001 -387.26999 2632232
18.74 56.41 -387.76001 2305320
18.969999 56.450001 -387.81 2436393
21.1 35.34 -379.72 2961705
20.719999 35.34 -379.57999 2894888
20.83 35.150002 -379.48999 2567976
19.17 8.0900002 -366.98001 2500387
20.530001 36.59 -380.01001 2763558
20.309999 36.23 -379.81 2762016
20.690001 36.299999 -380 2566174
19.24 37.630001 -379.82999 2828070
19.280001 37.880001 -379.98001 2959141
19.08 37.68 -379.76999 2763301
18.43 10.72 -367.67999 2434596
18.469999 10.84 -367.73001 2434596
18.290001 10.75 -367.64001 2500386
18.610001 11.1 -367.85999 2434849
18.34 37.02 -379.32001 2434841
18.1 36.740002 -379.04001 2369313
18.879999 10.25 -367.64999 2435363
18.690001 10.57 -367.72 2500645
18.74 2.1800001 -364.16 2369052
19.719999 -1.05 -363.09 2894381
17.34 30.639999 -375.76001 2433306
18.1 34.18 -377.70001 2893599
18.18 33.900002 -377.69 2828834
19 25.860001 -373.98001 2303276
19.059999 26.450001 -374.28 2368289
19.16 26.42 -374.34 2564386
19.110001 26.59 -374.41 2564383
19.25 26.25 -374.29001 2499106
19.25 26.5 -374.48001 2565153
19.030001 25.139999 -373.81 2827814
18.940001 25.25 -373.75 2631207
19.049999 24.75 -373.75 3418153
19.16 1.26 -363.92001 2698022
18.110001 29.040001 -375.59 1713694
18.370001 27.530001 -374.85999 2830123
18.74 28.309999 -375.39999 2631983
18.940001 28.6 -375.53 2304293
18.549999 28.610001 -375.47 2697763
18.82 1.99 -364.09 2369311
18.719999 1.87 -363.98001 2369055
17.91 0.28 -362.89999 2828576
19.27 0.039999999 -363.45001 2698021
19.379999 -0.2 -363.37 2566944
19.57 -0.11 -363.51001 2239013
18.200001 29.25 -375.73001 1975574
19.43 27 -374.94 2631208
19.77 26.77 -375.01001 2499869
19.75 27.01 -375.09 2500129
18.34 28.280001 -375.32001 2763565
19.75 -9.6899996 -359.34 2698280
19.629999 -9.7200003 -359.28 2501414
19.870001 -9.9200001 -359.23001 2566942
17.780001 -9.1400003 -358.57001 3883063
17.790001 27.030001 -374.42001 2435103
17.83 27.309999 -374.60001 2501933
19.620001 -11.39 -358.37 2566439
19.41 -11.25 -358.25 2567211
19.639999 -11.75 -358.26001 2565408
17.73 -9.3500004 -358.35001 2503467
17.85 -9.9700003 -357.98999 2370085
17.799999 -9.7399998 -358.10999 2566694
18.51 -9.71 -358.44 2434067
18.66 -9.9300003 -358.32999 2499611
19.219999 11.46 -368.19 2566178
18.84 29.110001 -375.73001 2172448
18.84 28.860001 -375.60001 2304024
18.75 -11.75 -357.51001 2827813
18.549999 63.75 -390.94 2960425
18.75 63.75 -391.13 2698544
18.51 63.810001 -390.95999 2960425
18.969999 26.93 -374.60001 2501157
19.139999 27.030001 -374.78 2500646
19.790001 -0.58999997 -363.28 2894111
19.959999 -0.82999998 -363.23999 3025191
19.459999 -1.21 -362.98999 2240042
19.35 32.02 -377.37 2368536
18.73 66.449997 -392.14999 1252373
18.709999 66.739998 -392.20999 2042145
18.57 66.809998 -392.16 2042145
18.49 63.919998 -391.01999 2436651
18.75 63.900002 -391.25 2173733
18.450001 64.099998 -391.09 2107938
18.75 63.82 -391.19 2698544
17.49 35.369999 -377.70999 2368541
19.799999 34.5 -378.81 2435107
20.290001 34.18 -378.89999 2829342
18.93 34.990002 -378.59 2828830
18.75 25.25 -373.63 2435111
18.58 25.219999 -373.60999 2304037
19.07 25.59 -373.92001 2696229
18.879999 25.68 -373.85999 2238248
18.870001 25.34 -373.73999 2435111
18.959999 25.440001 -373.82001 2631462
18.780001 25.530001 -373.76999 2370083
18.190001 67.550003 -391.48001 2369821
18.219999 67.389999 -391.72 2827555
18.280001 67.660004 -391.67999 2566179
18.34 68.279999 -391.60999 2434595
18.33 68.089996 -391.81 2696995
18.200001 67.25 -391.75 2566176
18.209999 67.209999 -391.85001 2566176
18.5 67.599998 -392.29999 2303263
18.48 67.849998 -392.38 2368793
18.360001 67.870003 -392.09 2696479
18.639999 67.360001 -392.34 2630947
18.48 67.309998 -392.20001 2369316
18.65 67.150002 -392.26999 2827811
17.879999 -10.45 -357.75 2304297
17.84 -10.21 -357.84 2304036
18.99 34.599998 -378.42999 2763806
18.67 67.540001 -392.44 2630946
18.129999 12.72 -368.42999 2566179
18.15 13.01 -368.59 2173214
18.01 12.92 -368.44 2369309
18.91 11.97 -368.16 2631716
18.6 11.84 -368.10001 2828065
17.709999 13.05 -368.17001 2238232
17.690001 12.87 -368.01999 2107166
18.32 11.98 -368.13 2566432
18.559999 12.33 -368.39001 2631970
18.629999 12.2 -368.29999 2500644
18.75 12.31 -368.37 2500390
19.129999 12.07 -368.19 2369826
18.99 12.15 -368.22 2435107
19.67 13.85 -369.63 2632227
19.469999 13.59 -369.48001 2501410
18.280001 15.56 -369.64999 2107429
18.290001 15.45 -369.54999 2238246
18.41 15.59 -369.67999 2565410
19.620001 15.37 -369.94 2828327
19.719999 15.32 -370.03 2763305
19.700001 15.47 -370.07001 2697771
19.030001 13.84 -369.32999 2566949
18.879999 14.14 -369.32001 2304552
18.18 14.46 -368.98999 2566436
18.700001 36.139999 -379.13 2958887
18.610001 36.259998 -379.14999 2828328
18.629999 15.65 -369.72 2893348
18.540001 15.49 -369.57001 2631713
18.83 15.58 -369.64999 3089191
18.82 30.530001 -376.64001 2041373
19.049999 30.709999 -376.73001 1845789
18.98 29.68 -376.23001 2171681
18.790001 29.620001 -376.17001 2302760
18.559999 30.51 -376.56 2303000
18.209999 -10.48 -357.85999 2435363
18.129999 -10.61 -357.76999 2435366
19.049999 34.209999 -378.29001 2369812
19.370001 33.91 -378.35999 2565917
19.389999 34.310001 -378.53 2370346
18.25 15.75 -369.85999 2237731
18.290001 15.63 -369.73001 2237731
18.290001 15.26 -369.39001 2370084
17.66 30.700001 -376.20999 2499870
17.790001 30.790001 -376.32001 2368801
21.27 -4.1599998 -362.16 3291702
21.32 -3.9400001 -362.35999 3488058
20.969999 -4.1999998 -362.16 3291441
18.02 30.83 -376.42001 2499359
19.35 34.77 -378.70001 2699048
19.84 14.17 -369.79001 2501157
19.74 14.5 -369.75 2566947
19.57 14.34 -369.63 2500900
18.620001 35.610001 -378.78 2958623
18.41 35.880001 -378.82001 2630685
19.690001 14.93 -369.82999 2828840
19.559999 14.95 -369.73999 2829098
19.700001 14.74 -369.78 2894120
19.780001 30.82 -376.92999 2434848
19.290001 31.299999 -376.95999 2501147
18.469999 13.31 -368.92999 2369826
18.25 13.47 -368.82999 2435614
19.07 14.52 -369.45999 2107687
18.459999 13.06 -368.81 2369568
18.290001 13.17 -368.76001 2304281
18.16 13.24 -368.69 2238750
18.040001 13.16 -368.57001 2238750
19.959999 38.330002 -380.64001 2500643
20.26 38.009998 -380.57999 2565920
20.389999 38.200001 -380.79001 2696734
17.959999 39.57 -380.29999 2435105
19.110001 38.720001 -380.5 2041894
18.84 38.5 -380.19 2172708
19.129999 38.290001 -380.17999 2368800
19.57 38.16 -380.32001 2172965
19.67 37.799999 -380.16 2566436
19.940001 37.970001 -380.39999 2304294
20.059999 -1.05 -363.22 3026221
20.09 -1.26 -363.17999 2895403
20.25 -1.16 -363.26001 2698541
20.139999 -5.0999999 -361.38 3356978
20.35 -4.9099998 -361.57001 3291185
20.16 -4.9499998 -361.60001 3553585
19.870001 67.519997 -393.45001 2238238
19.969999 67.610001 -393.60999 1910303
19.85 67.800003 -393.53 2304036
18.309999 68.120003 -392.35001 2434847
18.25 68.25 -392.38 2434847
18.219999 68.25 -392.32001 2434847
18.24 39.849998 -380.48001 2500382
18.91 67.760002 -392.72 2370596
18.67 67.879997 -392.57999 2305575
18.35 66.849998 -392.07001 2763298
18.25 67.059998 -391.97 2696995
18.4 68.150002 -392.48001 2435616
18.32 68.5 -391.51001 2368539
18.290001 68.150002 -391.98999 2565152
18.27 68.419998 -391.81 2566168
18.309999 68.330002 -391.73001 2434590
18.42 67.080002 -392.12 2631971
18.58 67.050003 -392.20999 2435620
18.280001 68.57 -391.64001 2565139
18.74 67.010002 -392.28 2369570
18.25 67.75 -391.5 2370082
18.16 67.75 -391.25 2107680
18.25 67.730003 -391.5 2566179
18.25 68.660004 -391.69 2565139
18.25 68.75 -391.64001 2565139
18.49 66.540001 -392.10001 2238492
18.280001 67.959999 -391.35001 2305059
18.24 67.849998 -391.38 2304291
18.27 67.830002 -391.45999 2893605
17.66 -10.07 -357.78 2631717
21.84 19.290001 -373.04001 2632490
21.610001 19.309999 -373.01999 2764073
21.719999 19.120001 -372.92001 2763558
19.610001 -5.98 -360.78 3487538
19.790001 -5.8000002 -360.85001 3354924
19.459999 -5.8099999 -360.91 3553846
17.549999 -10.9 -357.59 2041642
17.92 -11.13 -357.57001 2631976
19.65 0.30000001 -363.70999 2566694
19.85 0.20999999 -363.82001 2500640
18.200001 -9.3800001 -358.57999 2830121
18.32 -9.6499996 -358.42001 2565149
18.030001 -10.43 -357.82001 2304297
18.1 67 -391.75 2566433
18.32 36.290001 -379 2697509
18.66 66.889999 -392.20999 2369570
18.299999 67.279999 -392 2696738
18.620001 67.709999 -392.47 2434848
18.549999 64.25 -391.23999 2369552
18.540001 64.25 -391.25 2500374
18.4 64.25 -391.13 2566424
18.75 64.25 -391.45001 2435358
19.110001 -10.95 -358.01001 2566699
19.41 30.02 -376.5 1910303
19.33 30.26 -376.63 2172450
18.27 39.669998 -380.48999 2500643
19.370001 -6.3000002 -360.62 3552821
19.610001 -6.3600001 -360.57001 3355951
19.610001 -6.1999998 -360.64999 3487279
18 10.82 -367.57001 2238502
19.34 9.6000004 -367.44 2107943
18.43 10.61 -367.64001 2500644
18.25 64.25 -391.01001 2566180
19.360001 14.64 -369.59 2894374
19.559999 14.7 -369.67999 2829094
18.059999 13.41 -368.67001 2435874
18.76 36 -379.07001 2958887
18.610001 35.900002 -378.94 2958625
18.58 36.110001 -379.04999 2762539
18.43 36.099998 -378.95999 2762539
21.690001 40.549999 -382.54001 2500389
21.389999 40.459999 -382.39001 2565924
18.9 35.369999 -378.76999 2500380
19.25 33.380001 -378.06 2696991
19.030001 33.080002 -377.82001 2762526
19.459999 33.049999 -378.04001 2763811
18.77 67.620003 -392.56 2565408
18.75 65.75 -391.89999 1252373
19.01 65.699997 -392.06 2368025
19.129999 66.010002 -392.28 2369310
18.75 65.620003 -391.82001 2434588
18.940001 65.550003 -391.94 2368544
18.809999 13.56 -369.19 2565926
18.860001 14.82 -369.42001 2304546
18.35 8.5 -366.63 2696745
18.610001 8.5900002 -366.73001 2500135
18.299999 32.439999 -377.20001 2565658
18.23 30.82 -376.5 2499869
18.82 26.530001 -374.20001 2302751
18.959999 26.6 -374.29999 2302751
18.389999 26.120001 -374.01001 2434844
18.91 33.389999 -377.89001 2696230
18.76 5.2600002 -365.47 2893856
18.67 5.3099999 -365.39999 2696989
18.68 5.1100001 -365.28 2762780
19.34 56.869999 -388.37 2305061
19.450001 56.970001 -388.57001 2697765
19.23 57.029999 -388.48001 1252373
19.120001 56.810001 -388.17001 2567210
18.950001 56.900002 -388.20999 2370602
18.959999 56.77 -388.06 2435886
19.52 55.59 -387.73001 3025186
19.5 55.75 -387.72 3025186
19.42 55.73 -387.67001 2697756
20.25 56.200001 -388.31 2959642
20.16 56.09 -388.20001 2959392
20.32 56.060001 -388.23999 2566432
20.049999 35.450001 -379.32001 2632225
18 36.150002 -378.63 2893344
18.549999 36.459999 -379.22 2762789
18.99 4.9299998 -365.5 2500122
19.1 4.6900001 -365.45001 2696995
19.57 55.959999 -387.84 3221535
19.530001 56.139999 -387.89001 2959383
19.370001 56.099998 -387.76001 2500897
18.57 56.48 -387.78 2501417
18.540001 56.389999 -387.72 2173995
19.629999 56.169998 -387.98001 3090719
19.76 56.139999 -388.04999 3221794
19.65 56.240002 -388.03 3090719
19.18 56.299999 -387.76999 2566444
19.25 56.470001 -387.92001 2762788
19.15 37.459999 -379.72 2631195
18.209999 37.119999 -379.28 1910305
19.469999 37.59 -379.94 2827552
19.24 25.75 -374.04999 2827814
19.110001 26.040001 -374.09 2499107
18.450001 26.780001 -374.35001 2566438
18.309999 26.969999 -374.47 2696995
18.889999 27.33 -374.84 2763300
18.92 27.43 -374.94 2764333
19.25 26.190001 -374.25 2499106
18.73 25.719999 -373.82999 2369320
18.610001 25.620001 -373.78 2369320
19.450001 27.25 -375.07999 2893353
18.940001 28.040001 -375.34 2697241
19.01 27.209999 -374.82999 2696997
18.860001 27.6 -375.04001 2829879
18.549999 27.67 -375.01001 2961716
20.07 28.5 -375.84 2761507
18.969999 26.75 -374.44 2435362
19.25 26.75 -374.66 2566437
18.809999 26.690001 -374.29001 2369053
18.719999 26.82 -374.38 1976868
18.66 33.119999 -377.67999 2499871
17.540001 -11.27 -357.53 3222570
17.870001 -11.46 -357.47 2894377
17.709999 26.82 -374.23999 1976098
18.799999 12.14 -368.25 2369315
21.120001 9.5600004 -368.44 2566434
20.9 9.6700001 -368.42001 2566434
20.75 9.4799995 -368.23999 2762790
18.969999 12.25 -368.28 2434850
19.08 12.26 -368.25 2434850
21.530001 -0.69999999 -363.84 2632482
21.34 -0.56 -363.82001 3091244
21.43 -0.82999998 -363.79999 2632482
19.780001 29.940001 -376.53 2303783
19.219999 -0.34 -363.26999 2632222
18.26 10.96 -367.70001 2500386
18.27 11.19 -367.79001 2500128
18.01 11.05 -367.67001 2303779
19.469999 56.57 -388.14001 2697758
19.719999 56.599998 -388.35001 2763558
19.5 56.75 -388.35001 2697506
19.700001 56.77 -388.53 3025702
18.98 56.610001 -387.92999 2502188
20.34 38.860001 -381.17001 2369829
20.209999 39.09 -381.20999 2697253
20.1 38.900002 -381.04999 2370859
18.879999 -11.57 -357.59 2762535
19 -11.74 -357.60001 2631968
19.379999 -9.71 -359.16 2435368
19.290001 -9.79 -359.01999 2435875
19.92 -1.1799999 -363.13 3090476
18.57 9.0699997 -366.88 2304547
18.32 9.21 -366.87 2631455
17.450001 10.21 -366.85999 2303265
18.9 9.1599998 -367.04001 2632228
18.790001 9 -366.92001 2566691
20.27 38.560001 -380.95999 2304549
19.889999 38.740002 -380.85999 2370343
20.309999 32.400002 -378.03 2303511
19.700001 32.130001 -377.60999 2631204
19.17 29.93 -376.42001 1451808
20.379999 30.16 -376.85999 2565660
20 30.290001 -376.76999 1778976
20.15 29.92 -376.64999 2369309
18.639999 29.66 -376.17999 2434855
20.08 18.709999 -372.10001 2500379
19.91 18.709999 -371.94 2631968
20.049999 18.639999 -371.98999 2500634
20.190001 31.73 -377.51999 2827813
19.940001 31.9 -377.54001 2565665
19.99 31.540001 -377.32999 3090213
18.379999 8.8500004 -366.73001 2369570
19.25 11.69 -368.22 2697249
19.33 11.53 -368.29001 3090721
19.370001 11.32 -368.31 2762526
19.450001 11.04 -368.31 2369572
18.219999 8.6499996 -366.63 2500134
19.610001 8.4899998 -367.26001 2435103
19.34 8.3299999 -367.07001 2434846
19.17 30.07 -376.51001 1910815
21.02 16.969999 -371.85001 2566955
21.1 16.690001 -371.76001 2763303
19.09 33.599998 -378.04999 2827550
22.200001 33.07 -379.32001 2370855
21.889999 32.77 -379.01999 2829097
22.379999 32.57 -379.17999 3157291
18.09 34.830002 -377.91 2435096
18.67 4.8899999 -365.14999 2631454
18.99 4.5500002 -365.29999 2500382
18.790001 31.48 -376.85999 2304039
18.66 13.43 -369.07999 2565924
18.91 15.75 -369.81 2827301
19.139999 15.69 -369.81 3221539
18.700001 -8.9300003 -359.22 3816255
18.879999 -9.1499996 -359.17999 2897209
20.07 -7.3299999 -360.39001 2764594
20.360001 -7.3299999 -360.39001 2897205
20.26 -7.0500002 -360.42999 3027509
20.120001 14.18 -370.10001 2632489
20.25 14.35 -370.26001 2632742
18.57 14.26 -369.17999 2501159
18.389999 14.52 -369.12 2566695
18.99 13.55 -369.26001 2566182
19.17 -10.41 -358.39001 2500393
19 -10.31 -358.28 2500646
19.9 -9.3599997 -359.60001 3288110
19.809999 -9.54 -359.45999 3025196
20.059999 13.84 -369.98001 2698540
19.91 13.79 -369.82999 2698279
20.040001 -8.8299999 -359.92999 3157807
19.33 29.5 -376.09 2368534
19.559999 29.25 -376.01001 2370334
19.66 29.33 -376.10999 2435362
20.58 -8.3400002 -360.14999 2763819
20.389999 -8.4200001 -360.10999 2698544
20.549999 -8.6899996 -360.06 3091495
18.540001 11.47 -367.95999 2565407
18.389999 12.34 -368.35999 2697766
18.34 12.5 -368.44 2828325
19.129999 -6.96 -360.29999 3421755
18.43 64.75 -391.25 2696734
21.17 27.42 -376.25 2828322
21.33 27.34 -376.35001 2959908
21.26 27.52 -376.42999 3221540
20.6 -6.25 -360.67999 2961967
20.450001 -6.1399999 -360.70001 3093294
20.440001 -6.3099999 -360.63 2962222
19.459999 65.260002 -392.31 2369827
19.219999 65.18 -392.10999 2370080
19.889999 68.029999 -393.66 2762277
19.790001 68.040001 -393.54001 2828318
19.82 66.480003 -393.01999 2566690
19.75 66.830002 -393.10001 2827043
19.58 66.470001 -392.82001 2827550
19.299999 65.779999 -392.31 2369053
18.780001 67.370003 -392.45999 2893092
18.459999 68.019997 -392.45999 2435616
19.690001 68.639999 -393.64999 2172445
19.73 68.800003 -393.76001 2631191
19.629999 69.029999 -393.73999 2566170
19.139999 67.559998 -392.85001 2565410
19.299999 67.18 -392.85999 2434850
19.4 67.599998 -393.06 2435363
19.59 67.269997 -393.10999 2696733
19.74 67.550003 -393.32001 2237723
19.58 67.730003 -393.23001 2303511
18.57 68.110001 -392.60999 2567213
18.610001 68.260002 -392.73001 2631723
18.42 68.25 -392.56 2369838
18.9 68.809998 -393.26999 2304031
19.02 68.769997 -393.26001 2304031
19.030001 68.839996 -393.32001 2304031
19.07 33.869999 -378.14999 2172956
19.32 69.18 -393.62 2303767
19.24 68.970001 -393.45999 2565912
19.41 68.980003 -393.56 2238235
21.34 -0.94999999 -363.75 2828833
21.219999 -0.97000003 -363.69 3090467
21.35 -1.13 -363.67999 3025187
20.07 0.81 -364.20999 2566952
20.030001 1.04 -364.31 2632238
19.870001 0.99000001 -364.07999 2632227
18.879999 -9.4200001 -358.95001 2435362
17.719999 3.46 -363.79999 2696993
20.43 20.9 -373.04001 2631972
20.120001 20.879999 -373.01001 2696997
20.16 20.700001 -372.94 2762789
19.450001 66.809998 -392.85001 2828327
19.17 66.769997 -392.60001 2762011
19.290001 66.410004 -392.57001 2500120
18.76 67.150002 -392.35001 2827811
19.280001 33.650002 -378.19 2565908
19.34 -6.04 -360.79999 3750200
19.24 15.33 -369.67001 2828582
19.299999 15.54 -369.78 2960417
19.01 15.44 -369.62 2828839
18.24 4.02 -364.73001 2369312
18.85 15.12 -369.47 2631716
19.01 15.23 -369.54999 2763047
18.790001 15.22 -369.45999 2828322
19.139999 1.79 -364.17999 2239010
19 0.69 -363.59 2435879
19.32 0.75999999 -363.70001 2697770
18.16 15.6 -369.69 2107429
18.059999 15.47 -369.57999 2304040
18.92 15.9 -369.97 2500645
20.389999 -5.3600001 -361.14999 3225396
20.51 -5.3000002 -361.23001 3159345
20.440001 -5.1799998 -361.28 3159601
18.959999 66.82 -392.42999 2435099
18.98 66.400002 -392.31 2435101
18.76 66.260002 -392.10999 1252373
19.610001 65.760002 -392.51001 2303523
19.91 65.769997 -392.70001 2435102
19.77 66.029999 -392.73999 2172193
18.280001 12.2 -368.23999 2500899
20.82 -7.7199998 -360.39999 2764328
20.639999 -7.3800001 -360.39999 2633519
20.559999 -7.7399998 -360.31 2764329
19.549999 -10.2 -358.89001 2369571
19.59 -10.46 -358.76001 2565667
19.860001 -10.41 -358.92999 2434847
18.780001 12.21 -368.29001 2369315
17.709999 29.17 -375.54001 2369306
19.51 28.84 -375.78 2763030
19.290001 28.950001 -375.73999 2500632
19.26 28.68 -375.63 2499875
19.57 8.8100004 -367.25 2304294
19.52 15.55 -369.94 2632230
19.450001 15.37 -369.79999 2828070
19.68 65.300003 -392.48001 2369317
19.48 66.089996 -392.57999 2435095
20.719999 0.20999999 -364.16 2763046
20.879999 0.31999999 -364.38 2370343
19.76 8.7600002 -367.37 2500895
19.6 8.6800003 -367.25 2500641
20.01 14.03 -369.95001 2697769
20.16 13.96 -370.09 2698540
18.940001 8.1000004 -366.85001 2565925
21.51 40.330002 -382.34 2763046
19.469999 36.209999 -379.48001 2565914
19.950001 -2.5 -362.67999 2962483
21.040001 40.009998 -382.03 2697006
21.059999 40.209999 -382.12 2564904
20.83 40.09 -381.97 2894119
20.66 -6.7199998 -360.54001 3355441
20.92 -6.7199998 -360.67999 3354155
20.83 -6.4899998 -360.67001 3289134
18.67 26.67 -374.26001 2106912
18.709999 26.58 -374.20999 2303776
20.049999 66.440002 -393.17001 2369830
19.99 66.68 -393.25 2369832
20.9 30.68 -377.34 2368800
20.540001 30.9 -377.25 2566690
19.77 14.96 -369.92999 2828840
19.75 15.1 -369.95999 2828839
19.700001 15.06 -369.89001 2828840
20.33 -2.4400001 -362.81 2764074
20.309999 -2.74 -362.63 3026990
18.76 65.25 -391.63 2238498
18.93 64.709999 -391.76001 2107930
18.969999 65.139999 -391.85999 2238753
20.24 27.74 -375.48999 2369311
20.25 28 -375.64999 2500374
20.09 27.940001 -375.54999 2434073
19.709999 -0.33000001 -363.44 2566949
19.5 -0.41999999 -363.26999 2239267
19.549999 35.52 -379.12 2501162
19.26 35.200001 -378.84 2895391
19.16 -10.02 -358.70999 2435102
18.58 4.79 -365.04001 2435104
18.809999 65.370003 -391.75 2304291
18.860001 65.25 -391.73999 2304291
20.24 -6.1799998 -360.67001 2962485
19.129999 25.290001 -373.89999 3023137
19.25 25.25 -373.94 2696734
19.25 25.5 -373.98999 3023137
18.559999 26.450001 -374.16 2303776
18.559999 26.66 -374.26001 2106912
21.25 66.019997 -393.54999 2763304
21.16 66.139999 -393.48999 2763304
19.799999 65.529999 -392.57001 2434846
19.559999 65.489998 -392.39999 2435106
18.23 36.990002 -379.25 2434841
20.709999 37.450001 -380.39001 2566446
20.540001 37.470001 -380.32999 2632232
20.59 37.330002 -380.26999 2632232
19.799999 33.91 -378.60001 2631446
19.74 27.25 -375.17001 3551271
19.75 27.469999 -375.26001 3092257
19.24 -10.89 -358.19 2500904
19.42 -10.82 -358.41 2565920
19.4 -11.1 -358.25 2631460
19.969999 -9.1800003 -359.73001 3288110
20.01 -9 -359.84 3289134
19.25 12.19 -368.26001 2369826
19.299999 11.92 -368.25 2631971
18.66 30.34 -376.54001 2237470
18.92 68.910004 -393.37 2696729
18.549999 10.71 -367.72 2434596
18.74 10.81 -367.82001 2435110
18.870001 13.31 -369.14999 2500901
19.01 1.87 -364.14001 2238497
19.530001 33.540001 -378.29999 2959395
20.75 55.240002 -387.95999 3025191
21 55.25 -388.03 2697508
20.870001 55.450001 -388.07001 2566436
19.17 65.57 -392.13 2369043
19.309999 65.419998 -392.20999 2304284
19.4 65.599998 -392.31 2304030
21.57 55.549999 -388.95999 2500642
21.389999 55.700001 -388.95001 2697768
19.17 55.509998 -387.56 2108449
19.25 55.259998 -387.60001 2502442
19.370001 55.459999 -387.64999 2435876
18.75 56.990002 -388.25 2501419
18.75 56.869999 -388.10999 2633265
20.190001 -6.6199999 -360.51999 3159093
19.870001 -6.52 -360.53 3224885
19.940001 -6.7600002 -360.48001 3617585
19.52 -7.0500002 -360.37 2961450
19.33 -7.1700001 -360.29999 3289912
19.469999 -7.27 -360.32001 3485748
20.17 -6.8400002 -360.47 3355444
20.389999 -6.79 -360.48999 3027504
18.969999 68.580002 -393.13 2958881
18.76 68.760002 -393.17001 2566178
18.76 68.510002 -393 2762275
19.549999 68.089996 -393.31 2500385
19.690001 67.860001 -393.37 2041879
19.35 -0.49000001 -363.17999 2370335
19.700001 -1.64 -362.95001 3157029
19.15 69.110001 -393.54001 2696728
19.09 68.949997 -393.42001 2565912
19.690001 68.120003 -393.45001 2762775
19.6 68.389999 -393.45001 2434334
19.280001 68.779999 -393.35999 2566945
19.33 37.450001 -379.79999 2631196
18.52 38.400002 -379.95999 1976109
19.07 37.209999 -379.63 2630927
18.93 37.490002 -379.66 2631714
19.549999 37.27 -379.85001 2631456
19.48 36.939999 -379.72 2631715
20.68 35.709999 -379.79001 2763559
20.290001 35.689999 -379.57999 2762513
20.49 35.470001 -379.57001 3155745
20.309999 36.869999 -380.01999 2238233
19.299999 37.23 -379.72 2828312
19.23 36.990002 -379.64001 2958878
18.389999 36.57 -379.17999 2697507
18.440001 36.32 -379.09 2697509
19.35 54.900002 -387.76001 2698284
19.82 54.880001 -387.91 2763296
19.620001 54.98 -387.84 2632486
19.870001 55.169998 -387.88 2762785
19.549999 55.27 -387.76999 2632490
19.18 12.87 -369.10999 2434859
19.26 12.5 -368.53 2369313
19.24 12.61 -368.64001 2369824
19.110001 12.66 -368.67001 2763037
19.17 12.71 -368.76999 2763296
19.360001 12.53 -368.97 2894372
19.82 14.61 -369.85001 2763814
18.690001 13.13 -368.98001 2631717
20.190001 -0.43000001 -363.60999 2631711
20.209999 -0.67000002 -363.45999 2632230
20.24 -2.97 -362.48999 3354407
19.950001 -2.76 -362.54999 2961963
19.959999 -3.01 -362.42999 3158060
20.01 -3.27 -362.32999 3420459
20.219999 -3.28 -362.35001 3288873
20.17 -3.1400001 -362.39001 3354407
19.41 15.16 -369.70999 2893864
19.200001 15.11 -369.60001 2566185
19.379999 14.93 -369.64999 2828584
18.799999 15 -369.42999 2566179
18.98 15.05 -369.51001 2500649
20.950001 15.19 -370.92001 2828569
21.24 15.1 -370.98999 2696999
21.360001 15.44 -371.20001 2762543
19.620001 13.49 -369.59 2370080
18.76 64.75 -391.59 2435104
19.9 0.47 -363.92001 2763043
20.02 0.28999999 -363.95001 2762786
20.139999 0.51999998 -364.10999 2762787
19.959999 -2.2 -362.84 3092784
19.030001 65.389999 -391.95999 2368798
19.860001 1.23 -364.25 2369818
19.629999 1.1900001 -364.04999 2238755
18.879999 0.83999997 -363.62 2042661
19.129999 0.87 -363.70001 2829099
19.02 0.94 -363.70999 2632489
19.4 0.57999998 -363.66 2566951
19.52 0.68000001 -363.73001 2631975
19.780001 -0.2 -363.59 2370089
19.959999 -0.31 -363.60999 2501157
19.91 -0.13 -363.73001 2501157
18.85 5.1199999 -365.47 2893856
18.809999 4.9400001 -365.31 2631453
20.98 5.21 -366.60001 2435624
21.07 5.27 -366.67001 2370089
21.290001 4.9699998 -366.42999 2500900
21.49 4.8800001 -366.54999 2435620
21.42 5.02 -366.60001 2370341
19.940001 8.8999996 -367.51999 2500640
19.790001 8.9700003 -367.42001 2370081
19.799999 -7.5999999 -360.32999 3092780
21.209999 -6.8499999 -360.97 2895658
21.280001 -6.73 -361.07001 3223852
21.18 -6.6900001 -360.95001 3223338
20.82 -6.0700002 -360.85001 3093033
20.950001 -6.1599998 -360.87 3093033
20.98 -5.98 -360.98001 3290162
19.83 -5.9899998 -360.75 3356206
19.940001 -5.0799999 -361.5 3684408
19.73 -5.3200002 -361.19 3619638
19.99 -5.3499999 -361.13 3552813
19.879999 -5.1999998 -361.31 3684150
19.139999 -6.5500002 -360.48999 3421998
20.620001 -4.9899998 -361.45001 3290927
20.389999 -5.04 -361.41 3029042
20.99 15.54 -371.12 2567201
18.870001 16.059999 -370.16 2565926
21.33 15.85 -371.39999 2567211
21.02 15.92 -371.29999 2632235
18.75 15.74 -369.79001 2695715
19.43 15.97 -370.25 2632481
19.5 16.059999 -370.48999 2894626
19.25 16.219999 -370.42001 2566688
19.4 16.32 -370.73001 2435620
19.98 15.46 -370.53 2566437
19.43 16.83 -370.95999 2500637
19.52 17.049999 -370.98001 2566427
19.25 17 -370.84 2697506
20.719999 17.35 -371.76999 2500902
20.620001 17.35 -371.67001 2500902
20.709999 17.299999 -371.73001 2500902
19.17 9.1800003 -367.14999 2238753
19.1 9.3800001 -367.22 2369826
19.559999 9.29 -367.37 2173221
18.889999 12.19 -368.26001 2435107
18.879999 12.26 -368.32001 2369315
19.040001 8.4499998 -366.89999 2566434
19.110001 8.2799997 -366.92999 2566179
18.91 8.2700005 -366.82001 2631718
18.030001 8.3900003 -366.53 2368804
19.360001 9.3500004 -367.31 2107942
19.26 1.66 -364.17999 2173989
19.450001 1.49 -364.17999 2304294
19.440001 29.1 -375.87 2370334
19.379999 29.299999 -375.95999 2302998
19.690001 29.200001 -376.06 2566694
21.139999 28.75 -376.82999 2238246
20.950001 29.15 -376.84 2434329
20.799999 28.809999 -376.57001 2564901
19.48 -9.6099997 -359.29999 2697514
19.6 -9.54 -359.39001 2697514
19.129999 28.35 -375.48999 2500650
19.84 -10.65 -358.81 2565919
20.219999 -10.74 -358.95001 2172704
19.75 -10.11 -359.06 2500128
19.58 -9.8500004 -359.17001 2501414
19.469999 -9.9499998 -359.01999 2369830
19.27 29.15 -375.82999 2369045
19.360001 -10.24 -358.73001 2369572
19.309999 -9.9899998 -358.88 2369570
19.24 -11.26 -357.98001 2436137
20.23 -10.28 -359.13 2042402
19.370001 -10.51 -358.54001 2369573
19.23 -10.26 -358.57001 2434856
21.889999 35.18 -379.89001 2828581
21.9 35.48 -380.04999 2699057
20.52 32.09 -377.91 2762014
20.469999 31.709999 -377.63 2697763
20.860001 31.65 -377.79001 2632485
20.23 9.8699999 -368.16 2697508
20.01 10.05 -368.10999 2502438
20.02 9.8100004 -367.95001 2631712
20.09 9.4300003 -367.79001 2698018
19.67 10.12 -367.95001 2697511
21.18 35.009998 -379.54001 2895915
21.5 35.23 -379.76001 3027250
19.200001 30.35 -376.64999 2303518
20.639999 32.419998 -378.17001 2959134
18.389999 32.889999 -377.48999 2696993
20.09 21.040001 -373.10001 2435111
20.17 21.15 -373.16 2238757
19.450001 67.910004 -393.17999 2238499
19.290001 67.900002 -393.06 2434862
19.99 67.269997 -393.5 2237729
19.75 68.290001 -393.57999 2565655
18.25 66.410004 -392.01999 2303774
18.030001 66.470001 -391.95001 2631966
18.950001 68.709999 -393.20001 2631459
19.07 67.970001 -392.92001 2567208
19.389999 68.110001 -393.17999 2566187
19.42 68.360001 -393.28 2631208
19.23 68.209999 -393.10001 2566690
19.98 66.959999 -393.35999 2564887
19.83 67.220001 -393.31 2631456
19.1 56.09 -387.66 2632491
19.370001 55.130001 -387.70999 2699053
19.92 29.370001 -376.26999 2630942
19.299999 55.900002 -387.64999 2304801
21.18 55.810001 -388.44 3024673
21.17 55.889999 -388.72 2762769
21.01 55.939999 -388.54999 2696733
20.049999 29.59 -376.45001 2499615
19.98 55.5 -387.92001 2763041
20.709999 56.459999 -388.70999 2959652
20.610001 56.419998 -388.63 2959138
20.74 56.310001 -388.63 2959650
19.93 56.639999 -388.53 3025704
19.959999 56.470001 -388.38 2894883
20.74 29.99 -377 1911069
20.639999 30.41 -377.10001 2303765
19.51 38.619999 -380.60999 2303264
21.139999 37.869999 -381.01999 2434327
21.43 37.919998 -381.26999 2566686
21.129999 38.099998 -381.23001 2565924
19.91 20.51 -372.84 2566695
20.200001 20.49 -372.89999 2566437
20.219999 18.58 -372.07999 2238494
20.309999 18.389999 -372 2500640
20.52 18.5 -372.23001 2370342
20.17 -0.88999999 -363.32999 2829359
20.35 -4.1500001 -362.14001 3487539
20.51 -3.8199999 -362.25 3487023
20.58 -4.0100002 -362.20999 3421489
20.74 -3.8599999 -362.31 3290930
19.83 56.93 -388.85001 2698022
20.01 56.860001 -388.85001 2763558
19.629999 11.49 -368.63 2566179
19.6 11.77 -368.64999 2829354
18.860001 12.1 -368.22 2435107
19.67 11.87 -368.84 2829096
19.530001 12.13 -368.89001 2566188
19.4 56.279999 -387.88 2697506
19.549999 56.25 -387.95999 2893851
21.93 -2.49 -363.34 2764071
22 -2.53 -363.32999 2567460
21.969999 -2.3299999 -363.42001 2501669
19.610001 8.96 -367.29999 2304294
20.290001 9.1999998 -367.85001 2697763
20.34 8.8800001 -367.85001 2567461
20.59 9.0200005 -368.04999 2370849
19.690001 10.95 -368.5 2304041
18.93 -10.52 -358.09 2566181
19.690001 -11.09 -358.54001 2565921
19.860001 -11.44 -358.59 2698024
19.74 -11.75 -358.35001 2565408
19.99 -11.64 -358.67001 2631711
19.309999 56.75 -388.20999 2566948
19.219999 56.880001 -388.29001 2370855
20.34 37.57 -380.32001 2500641
20.43 37.419998 -380.26001 2566690
19.76 15.21 -370.03 2828839
19.82 15.09 -370.04001 2763304
19.379999 69.339996 -393.75 2369052
19.25 69.440002 -393.76001 2499613
19.25 69.339996 -393.69 2630936
22.440001 9.8500004 -369.31 2763564
22.35 9.6899996 -369.20001 2565929
22.5 9.5900002 -369.31 2566695
20.620001 28.25 -376.10001 2827809
20.73 27.98 -376.04001 2499869
20.809999 28.17 -376.26001 2893085
23.780001 23.93 -375.95001 2434596
23.59 23.969999 -375.82999 2303519
23.58 23.780001 -375.75 2499870
18.66 15.36 -369.48001 2828322
19.25 69.239998 -393.64001 2630936
18.99 55.259998 -387.45999 2305570
19.860001 0.34 -363.85001 2763043
20.059999 0.029999999 -363.88 2107424
20.35 0.19 -364.04999 2566171
20.33 -2.05 -362.98001 2829608
20.700001 -1.74 -363.20001 2370345
20.34 -1.7 -363.12 2829096
20.18 9.6499996 -367.98001 2631971
19.67 56.939999 -388.73001 2566697
19.889999 56.799999 -388.69 2894372
20.129999 8.5699997 -367.69 2371111
20.01 8.5699997 -367.57999 2566692
21.09 36.220001 -380.19 2566173
21 36.369999 -380.17999 2697247
20.879999 36.139999 -380.06 2565404
20.790001 34.84 -379.31 2698533
19.75 18.25 -371.23001 2369822
19.75 18 -371.12 2500637
19.799999 18.09 -371.22 2369822
19.389999 15.69 -369.92999 2632217
19.34 15.84 -370.01999 2632217
19.91 14.43 -369.89999 2501156
19.99 14.24 -369.95001 2632486
20.1 35.939999 -379.60999 2565920
19.879999 36.209999 -379.64001 2042147
20.879999 36.580002 -380.16 2762784
20.799999 36.790001 -380.17001 2697764
19.9 33.360001 -378.42001 2894892
21.26 36.369999 -380.29999 2631716
21.49 36.529999 -380.42999 2631963
21.209999 36.619999 -380.32999 2828063
20.33 9.46 -367.98999 2763558
19.540001 12.03 -368.66 2631972
19.809999 -6.1500001 -360.67001 3356469
19.98 -6.2600002 -360.63 3028281
20.35 -3.9200001 -362.17999 3487020
19.16 16.110001 -370.25 2435360
20.219999 37.43 -380.20001 2500642
20.41 37.299999 -380.20001 2631963
18.639999 38.610001 -380.19 2041123
20.59 21.219999 -373.19 2762788
20.459999 21.280001 -373.22 2566439
20.34 21.17 -373.16 2107684
20.940001 37.450001 -380.48999 2304037
20.790001 37.23 -380.29999 2828587
20.290001 66.470001 -393.34 2500133
19.459999 55.02 -387.78 2698284
22.389999 0.94 -365.35001 2565918
22.309999 1.23 -365.41 2697502
22.18 0.94999999 -365.31 2500379
19.68 1.4400001 -364.29999 2239009
21.42 -7.1900001 -361.19 2895402
21.440001 -7.4299998 -361.17999 2829872
21.52 -7.2800002 -361.29001 2895152
21.809999 -5.7199998 -361.67999 3288876
21.790001 -5.4899998 -361.67999 3223857
21.6 -5.6700001 -361.53 3289392
20.459999 -5.98 -360.79001 3224622
20.639999 -6.1100001 -360.76001 3224620
20.66 -5.9499998 -360.85999 3224622
21.09 -5.4899998 -361.31 3421750
20.93 -5.6300001 -361.17999 3355957
21.139999 -5.6900001 -361.23999 3355449
19.530001 -6.8899999 -360.39999 3028017
20.969999 65.459999 -393.01001 2434847
21.030001 65.709999 -393.06 2565908
20.75 65.690002 -392.98001 2106910
20.43 29.84 -376.76999 2107677
20.450001 29.629999 -376.70999 2172700
20.67 29.68 -376.85999 1779483
21.200001 -6.1599998 -361.09 3289656
21.1 -6.0700002 -361.03 3224114
21.059999 -6.25 -360.92001 3093296
21.139999 4.6100001 -366.17001 2697248
20.950001 4.6199999 -366.14999 2632225
20.98 4.4499998 -366.10999 2631972
20.59 -3.04 -362.56 2502446
20.01 -1.8 -363 2698538
20.190001 -1.46 -363.16 2371370
20.040001 37.669998 -380.26001 2434338
20.780001 -8.7700005 -360.13 2960421
20.9 -9.04 -360.12 2762786
20.950001 -8.8400002 -360.22 2894115
19.549999 10.75 -368.26999 2567218
19.110001 11.84 -368.17001 2369824
23.32 20.49 -374.23001 2108200
23.09 20.690001 -374.20001 2371118
23.01 20.309999 -373.98999 2566950
20.67 21.110001 -373.16 2762788
20.389999 21.059999 -373.10001 2435110
20.879999 -5.2399998 -361.35999 3422005
20.969999 -5.04 -361.47 3488051
20.76 -5.1100001 -361.39001 3422001
20.25 30.59 -376.98999 2237984
22.219999 -6.3800001 -361.97 2306348
22.26 -6.75 -361.98999 3157545
20.780001 16.07 -371.29001 2631970
20.58 16.26 -371.31 2632227
20.950001 14.91 -370.79001 2697242
21.219999 14.82 -370.89999 2435106
19.59 15.7 -370.12 2501423
19.74 15.75 -370.41 2501163
20.290001 10.15 -368.39001 2502448
19.15 14.87 -369.54001 2107945
20.190001 14.64 -370.29999 2698534
20.059999 14.4 -370.07999 2632484
19.219999 13.65 -369.37 2566689
19.870001 8.6199999 -367.45999 2501152
19.9 8.4099998 -367.48999 2369827
18.940001 16.16 -370.26999 2566692
19.02 16.27 -370.39999 2108452
20.23 -9.3999996 -359.69 3026219
20.58 15.21 -370.84 2828582
20.639999 15.27 -370.89001 2828582
19.24 16.719999 -370.76999 2107683
21.68 17.709999 -372.20999 2762531
21.48 17.65 -372.16 2697506
21.719999 17.49 -372.14999 2500639
19.639999 16.879999 -371.09 2303777
19.85 16.950001 -371.17999 2304036
20.18 -8.9499998 -359.88 2960683
20.43 -9.0299997 -359.91 2763815
20.23 -8.6999998 -360 2895663
19.620001 -7.4200001 -360.32999 3354673
20.129999 -9.5900002 -359.56 2763561
19.719999 -0.059999999 -363.64001 2370089
21.450001 -0.30000001 -363.85999 3156775
21.219999 -0.059999999 -363.95001 2566692
21.129999 -0.28999999 -363.84 2566959
19.870001 0.69999999 -363.95999 2697507
19.620001 0.87 -363.85999 2566439
19.68 0.63999999 -363.79999 2697764
19.719999 8.3000002 -367.35001 2172962
19.870001 69.239998 -394.25 2304025
20.870001 28.389999 -376.42999 2762013
20.709999 28.43 -376.28 2827548
19.440001 29.76 -376.32001 2434338
21.09 27.98 -376.51001 2828574
21.25 27.950001 -376.66 2565918
21.139999 28.139999 -376.64001 2566168
20.27 55.509998 -387.98999 2828835
20.309999 55.740002 -388.07001 2697507
20.049999 55.740002 -388.01001 2697507
20.620001 56.029999 -388.34 2238750
20.700001 56.139999 -388.48001 2500641
20.540001 56.169998 -388.41 2566427
19.110001 56.93 -388.29999 2370855
19.74 56.419998 -388.20999 2632226
21.030001 -9.04 -360.20999 2828322
21.110001 -8.96 -360.32001 2762787
20.34 -8.25 -360.16 2764077
20.16 -8.3599997 -360.12 2829615
20.709999 -8.4799995 -360.14999 2894891
20.120001 28.209999 -375.70999 2631453
18.950001 69.080002 -393.51001 3089692
20.09 67.760002 -393.82001 2696993
22.889999 30.85 -378.51001 2764068
23.09 31.07 -378.73999 3288871
22.9 31.360001 -378.78 3158060
20.75 33.91 -378.97 3222309
19.780001 0.54000002 -363.84 2763043
21.25 19.559999 -373.09 2501413
19.99 -9.75 -359.39001 2501671
20.24 -10.04 -359.28 2239783
21.200001 35.610001 -379.94 2895143
20.809999 4.1300001 -366.01999 2370340
20.879999 56.119999 -388.59 2631720
20.91 56.290001 -388.76001 2763045
20.030001 56.950001 -389 2698021
20.780001 56.580002 -388.82999 2894114
20.82 56.43 -388.76001 2959652
20.92 56.48 -388.89999 2828578
19.24 57.279999 -388.76999 1252373
19.25 57.240002 -388.72 1252373
20.59 -4.25 -362.12 3488305
20.65 -4.48 -361.95001 3422770
20.1 18.52 -371.91 2500634
19.91 18.190001 -371.39001 2370083
19.860001 18.33 -371.45001 2370340
19.76 18.27 -371.25 2369822
19.950001 18.48 -371.69 2238755
19.75 18.51 -371.5 2370089
21.959999 17.32 -372.14999 2500129
22.120001 17.469999 -372.22 2435107
21.9 17.59 -372.20999 2565920
17.950001 14.35 -368.84 2565919
19.92 18.799999 -372.10001 2631713
19.74 18.73 -371.76999 2435618
19.92 18.639999 -371.85001 2435102
20.049999 -3.53 -362.25 3814702
20.17 -3.4100001 -362.29999 3552049
21.799999 -4.02 -362.32999 3553075
21.559999 -4.04 -362.26999 3487800
21.709999 -4.1300001 -362.16 3552821
20.530001 17.17 -371.53 2566693
20.540001 16.799999 -371.42001 2566699
20.77 16.92 -371.59 2632491
19.610001 9.8000002 -367.67999 2630958
19.360001 9.1800003 -367.23001 2173218
20.84 9.3000002 -368.23001 2436132
21.99 17.74 -372.29001 2631199
21.780001 17.799999 -372.26001 2631709
21.110001 19.040001 -372.76999 2631974
20.450001 14.54 -370.45001 2697511
20.42 14.8 -370.54001 2434600
19.68 8.8400002 -367.32001 2435363
18.889999 68.760002 -393.22 2304031
18.75 68.779999 -393.20999 2435102
19.969999 9.1700001 -367.59 2632225
19.709999 9.1599998 -367.41 2304547
19.33 10.33 -367.89999 2631461
20.65 36.939999 -380.14999 2828840
20.950001 37.02 -380.29001 2697511
20.5 37.130001 -380.16 2959651
21.01 32.060001 -378.10999 2632224
21.35 32.169998 -378.37 3156256
21.040001 32.43 -378.35999 2501156
23.35 29.309999 -378.04999 2698542
23.700001 29.16 -378.13 2566437
22.16 29.969999 -377.70999 2565402
21.6 -0.52999997 -363.85999 2894625
19.42 0.40000001 -363.62 2501158
19.559999 0.50999999 -363.70001 2698021
19.98 68.230003 -393.85999 2500646
19.84 68.43 -393.73999 2500382
19.700001 66.260002 -392.82001 2434844
21.16 66.300003 -393.70999 2829357
21.01 66.220001 -393.42999 2631976
21.370001 32.43 -378.53 2632749
21.59 32.57 -378.73999 2566441
20.110001 31.09 -377.14999 2238754
19.91 66.239998 -392.95001 2304036
20.709999 65.379997 -392.92999 2303262
20.969999 65.190002 -392.98999 2500893
20.040001 66.010002 -392.88 2238496
19.52 0.13 -363.60001 2370084
20.02 -0.69 -363.35001 3025191
20.92 -3.98 -362.29999 3225908
20.139999 8.9799995 -367.69 2632228
20.059999 8.7700005 -367.62 2632228
20.629999 -8.1099997 -360.20999 2829863
20.700001 -7.9299998 -360.26999 2829607
20.540001 -7.98 -360.25 2895146
19.469999 68.68 -393.45999 2369315
18.75 69.029999 -393.45001 2630430
19.91 18.02 -371.31 2566429
20.059999 17.77 -371.35999 2500643
20.08 18.040001 -371.48999 2696994
21.26 14.47 -370.84 2631460
20.75 21.35 -373.28 2959911
20.5 21.35 -373.26001 2566439
19.76 67.910004 -393.45999 2304541
19.790001 67.730003 -393.42999 1779740
19.84 15.44 -370.26001 2631979
20.84 17.18 -371.79001 2435111
20.780001 17.4 -371.85999 2566435
20.26 17.68 -371.51001 2434849
20.43 17.610001 -371.63 2500896
20.4 17.790001 -371.67999 2565657
20.469999 9.8500004 -368.31 1911848
20.389999 9.6599998 -368.14001 2566695
21.530001 10.57 -369.25 2566686
21.85 10.73 -369.45001 1714982
21.139999 5.3299999 -366.75 2304293
20.68 65.949997 -393.04999 2762531
20.83 66.080002 -393.16 2762531
20.639999 66.120003 -393.14999 2565662
18.16 5.6799998 -365.35999 2828584
20.66 -0.2 -363.85999 2696737
17.860001 14.74 -369.04001 2500384
17.75 14.92 -369.14001 2631454
22.15 2.0899999 -365.81 2370084
20.790001 28.549999 -376.41 2762017
20.700001 28.59 -376.34 2827554
20.440001 66.370003 -393.31 2630941
21.4 16.379999 -371.76001 2304291
21.450001 16.49 -371.82999 2304546
20.690001 17.200001 -371.67001 2566954
20.74 17.24 -371.73001 2500902
21.219999 16.299999 -371.59 2436136
21.35 16.1 -371.54999 2304554
21.4 16.24 -371.67001 2042663
19.629999 -10.73 -358.64001 2500385
22.17 34.52 -379.78 2501921
