ply
format ascii 1.0
comment PCL generated
element vertex 1233
property float x
property float y
property float z
property uchar red
property uchar green
property uchar blue
property uchar alpha
element camera 0
property float view_px
property float view_py
property float view_pz
property float x_axisx
property float x_axisy
property float x_axisz
property float y_axisx
property float y_axisy
property float y_axisz
property float z_axisx
property float z_axisy
property float z_axisz
property float focal
property float scalex
property float scaley
property float centerx
property float centery
property int viewportx
property int viewporty
property float k1
property float k2
end_header
95.089996 82.830002 -413.28 88 78 63 0
95.279999 86.089996 -413.54001 78 73 61 0
94.989998 77.419998 -412.78 85 79 71 0
98.419998 130.27 -415.29001 78 72 50 0
98.940002 130.67 -415.32999 77 67 54 0
98.580002 130.83 -415.29001 75 64 44 0
95.720001 141.03 -414.72 78 78 72 0
96.010002 141.00999 -414.81 79 80 73 0
95.82 141.16 -414.79001 80 80 75 0
95.93 82.129997 -413.35001 89 81 72 0
94.660004 125.43 -414.69 82 78 61 0
94.639999 125.23 -414.72 80 78 62 0
95.290001 81.949997 -413.23999 87 85 80 0
94.720001 81.870003 -413.23999 86 82 68 0
94.889999 81.209999 -413.23001 86 81 61 0
96.220001 125.86 -414.95001 85 75 61 0
99.099998 124.9 -415.35001 79 72 60 0
98.860001 124.32 -415.32999 84 72 57 0
96.5 125.96 -414.98001 80 74 62 0
97.379997 126.78 -415.17001 83 71 53 0
97.589996 126.46 -415.17999 85 72 54 0
97.709999 126.69 -415.23001 85 70 56 0
96.669998 125.02 -414.95999 87 80 60 0
95.580002 76.32 -412.81 85 76 64 0
94.779999 79.330002 -413.07001 86 85 67 0
95.419998 85.879997 -413.57001 78 78 66 0
96.059998 123.7 -414.76999 84 78 65 0
96.220001 123.96 -414.81 88 79 68 0
95.879997 124 -414.81 82 79 68 0
94.660004 124.86 -414.79999 86 79 69 0
96.309998 140.89999 -414.87 82 82 74 0
96.300003 140.67 -414.82001 81 77 70 0
96.660004 140.97 -414.98001 84 84 79 0
97 140.69 -415 86 81 75 0
97.110001 140.88 -415.09 85 85 79 0
96.650002 138.47 -414.70999 76 64 52 0
95.940002 75.400002 -412.81 84 76 59 0
95.690002 75.160004 -412.76999 83 73 58 0
95.660004 86.400002 -413.66 80 73 59 0
95.029999 86.139999 -413.48001 73 69 58 0
98.360001 124.25 -415.23999 79 76 60 0
98.5 131.61 -415.23001 74 62 54 0
98.089996 131.72 -415.14999 73 66 51 0
97.980003 131.2 -415.17999 76 64 49 0
97.260002 127.29 -415.19 81 73 53 0
97.639999 127.05 -415.25 83 73 56 0
97.610001 127.54 -415.28 85 73 55 0
96.510002 136.27 -414.82001 79 67 55 0
95.610001 137.35001 -414.60001 79 69 50 0
96.970001 87.139999 -413.85999 76 73 59 0
97.059998 87.349998 -413.82999 77 72 55 0
95.639999 86.790001 -413.54001 75 70 58 0
95.889999 86.870003 -413.60999 72 72 66 0
95.75 87.089996 -413.48999 70 71 69 0
96.550003 123.55 -414.76999 91 79 66 0
96.769997 123.49 -414.81 88 79 60 0
96.690002 123.88 -414.84 92 78 68 0
94.830002 122.71 -415.04999 0 0 0 0
95.18 122.96 -414.91 92 80 72 0
95.410004 121.57 -415.28 91 80 61 0
95.809998 121.64 -415.23001 87 78 59 0
96.75 82.239998 -413.51999 87 81 69 0
96.470001 81.690002 -413.45001 89 81 67 0
95.540001 83.550003 -413.35999 85 75 67 0
96.080002 84.669998 -413.48001 79 77 67 0
96.790001 128.78 -414.98999 88 73 56 0
95.059998 121.6 -415.29001 77 83 68 0
100.94 129.53 -415.56 74 66 56 0
101.21 130.06 -415.62 71 62 40 0
100.63 130.02 -415.51001 69 60 46 0
94.629997 82.120003 -413.26001 87 81 71 0
95.5 121.25 -415.35001 87 81 60 0
96.279999 129.67999 -414.81 80 73 50 0
95.300003 128.98 -414.67001 90 76 62 0
96.050003 122.51 -414.95001 89 78 62 0
95.739998 123.71 -414.78 78 77 72 0
95.589996 122.82 -414.89001 86 78 65 0
95.879997 122.98 -414.81 86 78 51 0
97.339996 123.55 -414.95001 86 76 65 0
97.040001 123.36 -414.85999 87 79 55 0
97.82 139.28999 -415.03 69 61 48 0
97.660004 138.78999 -414.92999 71 65 51 0
96.279999 78.650002 -413.10999 85 78 62 0
94.639999 77.889999 -412.81 87 82 61 0
95.239998 79.480003 -413.20001 96 81 73 0
95.809998 79.489998 -413.32001 92 83 79 0
95.790001 80.349998 -413.35001 96 85 80 0
95.830002 79.959999 -413.37 94 86 80 0
97.099998 80.25 -413.5 90 82 76 0
96.919998 80.739998 -413.45999 88 82 68 0
96.559998 80.220001 -413.42001 88 80 60 0
98.620003 79.599998 -413.82001 84 76 60 0
96.690002 81.239998 -413.44 89 82 78 0
96.25 80.699997 -413.38 84 80 72 0
95.190002 82.650002 -413.23999 87 80 66 0
95.510002 83.010002 -413.26999 87 80 63 0
95.440002 83.190002 -413.29999 87 80 63 0
95.300003 83.300003 -413.34 88 78 64 0
94.519997 82.510002 -413.29999 84 82 70 0
96.410004 75.400002 -412.85999 87 76 55 0
96.889999 75.349998 -412.89001 87 71 56 0
96.879997 75.830002 -412.98001 86 77 65 0
95.309998 82.519997 -413.23001 87 79 63 0
96.519997 78.349998 -413.14001 85 79 66 0
96.730003 78.529999 -413.19 87 77 65 0
96.57 78.529999 -413.14999 87 77 65 0
96.440002 77.519997 -413.17001 93 75 64 0
96.480003 77.790001 -413.19 89 77 64 0
94.489998 77.110001 -412.70001 85 80 67 0
96.050003 79.150002 -413.23001 88 81 78 0
96.139999 79.349998 -413.31 91 81 78 0
95.919998 79.330002 -413.29001 93 82 78 0
96.18 79.75 -413.39001 90 83 78 0
96.290001 79.529999 -413.35999 88 80 72 0
96.449997 79.809998 -413.41 86 80 71 0
96.470001 86.910004 -413.78 82 72 58 0
96.519997 87.010002 -413.76001 79 68 63 0
96.330002 86.989998 -413.70999 79 68 65 0
96.459999 74.959999 -412.81 87 73 59 0
96.010002 75.040001 -412.79001 85 75 57 0
96.129997 74.720001 -412.73999 87 73 58 0
96.580002 79.529999 -413.39001 87 79 65 0
95.620003 79.620003 -413.31 94 82 79 0
100.98 132.41 -415.53 79 67 50 0
101.38 132.55 -415.57001 76 64 48 0
101.27 132.98 -415.54999 74 69 51 0
97.639999 82.260002 -413.64001 91 77 68 0
97.639999 82.620003 -413.66 93 80 69 0
97.330002 82.260002 -413.60999 91 80 69 0
97.400002 134.58 -414.95999 83 69 55 0
96.309998 76.239998 -413 88 77 62 0
98.169998 139.45 -415.14999 72 60 50 0
98.300003 139.22 -415.16 67 62 47 0
98.360001 139.39999 -415.20001 74 68 55 0
102.14 136.14999 -415.62 80 70 54 0
102.51 136.38 -415.67001 79 68 53 0
102.05 136.61 -415.60001 78 68 53 0
94.830002 128.05 -414.62 93 76 62 0
96.010002 82.639999 -413.35001 95 80 70 0
95.75 121.26 -415.34 88 79 54 0
96.709999 122.3 -414.89001 86 86 70 0
97.019997 121.96 -414.95001 87 80 71 0
97.050003 122.19 -414.89999 88 81 68 0
96.25 121.25 -415.35001 91 82 60 0
96.209999 121.51 -415.23001 88 81 55 0
96.349998 135.59 -414.81 75 67 49 0
95.860001 136.34 -414.67999 76 65 41 0
98.629997 128.37 -415.32999 82 70 42 0
98.940002 128.78 -415.29999 75 70 50 0
98.480003 128.87 -415.31 76 66 56 0
96.970001 136.38 -414.89001 77 67 55 0
97.300003 136.03999 -414.92001 78 66 48 0
97.330002 136.47 -414.91 77 68 53 0
98.410004 136.8 -414.98001 80 64 47 0
98.379997 136.2 -414.98999 80 72 49 0
97.839996 134.61 -415.01001 79 67 45 0
97.470001 134.10001 -414.98001 82 70 51 0
97 122.6 -414.85001 90 79 65 0
96.830002 122.5 -414.84 88 79 62 0
97.110001 122.34 -414.88 88 81 68 0
96.209999 123.02 -414.76999 91 76 58 0
96.629997 122.86 -414.79001 88 75 63 0
98.480003 121.74 -415.23001 87 78 70 0
98.230003 121.49 -415.20999 84 79 65 0
98.459999 121.18 -415.31 86 79 57 0
95.260002 123.25 -414.82999 86 78 72 0
96 81.75 -413.35999 91 82 71 0
96.599998 79.029999 -413.25 89 79 68 0
96.370003 79.260002 -413.29001 89 80 71 0
96.940002 87.57 -413.76999 73 65 61 0
96.75 87.610001 -413.72 73 65 61 0
96.150002 86.879997 -413.70001 76 69 65 0
96.93 79.480003 -413.42999 85 78 66 0
96.800003 79.849998 -413.45001 89 80 68 0
99.150002 78.209999 -413.38 87 75 61 0
98.940002 78.370003 -413.37 87 78 64 0
97.25 73.459999 -412.60001 83 74 51 0
96.68 79.279999 -413.34 86 78 64 0
96.629997 121.41 -415.22 86 83 58 0
97.440002 78.220001 -413.39001 84 79 59 0
97.769997 78.169998 -413.42999 87 79 61 0
97.589996 78.639999 -413.42001 84 79 64 0
96.269997 77.269997 -413.07999 89 77 64 0
96.449997 77.199997 -413.16 87 77 60 0
96.919998 87.419998 -413.76999 75 68 54 0
97.080002 87.510002 -413.82001 77 69 63 0
96.010002 136.10001 -414.70999 74 67 47 0
96.220001 138.82001 -414.63 78 70 48 0
95.959999 76.5 -412.92001 93 77 63 0
97.199997 73.970001 -412.63 83 71 55 0
97.260002 74.260002 -412.70999 82 71 60 0
95.110001 85.330002 -413.26001 71 73 68 0
97.169998 82.830002 -413.60999 91 83 72 0
97.949997 126.4 -415.25 86 75 51 0
96.830002 141.33 -415.17001 84 84 80 0
96.809998 141.14999 -415.09 84 84 79 0
98.190002 138.85001 -415.07999 68 64 49 0
95.410004 75.580002 -412.76999 85 76 60 0
96.690002 76.169998 -413.07001 90 79 66 0
99.25 74.550003 -413.42999 84 77 63 0
99.089996 74.489998 -413.39001 84 77 63 0
99.309998 74.290001 -413.42001 83 77 63 0
99.449997 83.190002 -413.97 83 75 57 0
99.190002 82.910004 -413.85999 87 73 57 0
99.550003 82.889999 -413.95001 88 72 53 0
96.559998 86.809998 -413.85001 82 72 58 0
96.470001 86.730003 -413.85999 82 72 58 0
95.230003 86.400002 -413.5 74 69 59 0
97.099998 88.480003 -413.91 66 64 67 0
97.389999 88.220001 -413.97 74 75 65 0
95.400002 82.269997 -413.23999 87 82 66 0
95.099998 141.25999 -414.59 83 79 76 0
94.730003 141.28999 -414.51001 81 78 78 0
97.239998 83.389999 -413.60999 89 84 74 0
97.470001 83.730003 -413.66 90 79 72 0
98.849998 82.629997 -413.76001 89 79 65 0
98.879997 83.150002 -413.81 84 81 61 0
98.489998 82.989998 -413.73001 88 81 69 0
96.080002 74.199997 -412.53 83 77 56 0
96.760002 76.690002 -413.23999 88 76 62 0
96.93 76.5 -413.20999 89 77 64 0
96.980003 76.809998 -413.29001 86 73 62 0
97.620003 74.239998 -412.81 85 72 58 0
97.769997 74.550003 -412.92999 89 71 55 0
97.5 74.43 -412.81 84 73 58 0
96.82 135.8 -414.89001 78 68 50 0
97.440002 141.17 -415.42999 85 86 80 0
97.290001 141.38 -415.45999 88 86 82 0
96.860001 126.86 -415.07999 85 75 54 0
97.980003 127.78 -415.34 82 71 64 0
97.730003 128.13 -415.29999 76 71 48 0
96.790001 125.65 -415 84 76 59 0
95.739998 140.27 -414.63 59 61 52 0
98.900002 132.61 -415.22 76 65 50 0
98.519997 132.14 -415.19 74 66 48 0
96.07 77.849998 -413.03 86 80 55 0
94.75 122.25 -415.19 86 82 82 0
95.839996 123.2 -414.76999 80 78 60 0
100.12 82.769997 -414 87 74 51 0
100.24 83.089996 -414.07001 85 73 58 0
100.04 82.940002 -414.03 88 73 52 0
95.889999 86.470001 -413.73001 82 72 60 0
95.75 86.629997 -413.64001 77 71 59 0
96.790001 77.43 -413.32001 88 75 53 0
95.93 79.720001 -413.37 91 85 80 0
95.290001 123.41 -414.81 84 79 75 0
95.709999 77.68 -412.92999 83 79 61 0
96.449997 85.529999 -413.82999 77 76 76 0
96.599998 85.75 -413.97 80 74 74 0
96.32 85.709999 -413.84 82 77 80 0
96.139999 85.57 -413.73999 81 78 73 0
95.389999 86.82 -413.45001 71 65 61 0
97.760002 131.8 -415.07999 74 70 46 0
97.639999 132.06 -415.01999 75 69 42 0
97.349998 131.69 -415 74 70 49 0
97.669998 133.58 -415 79 70 55 0
98 134.12 -415.04999 81 69 49 0
96.610001 74.690002 -412.76001 85 74 59 0
96.379997 74.629997 -412.73001 86 73 62 0
96.529999 74.410004 -412.67001 87 73 65 0
97.57 130.08 -415.14999 80 72 53 0
97.93 130.67 -415.20999 80 62 45 0
97.089996 129.61 -415.03 82 74 62 0
96.949997 130.32001 -414.98999 86 72 57 0
96.669998 129.78999 -414.91 83 71 59 0
97.139999 125.21 -415.03 86 77 60 0
102.23 125.13 -415.89999 78 73 58 0
101.62 125.34 -415.79001 76 74 56 0
101.6 124.75 -415.81 82 70 57 0
97.489998 87.779999 -413.95999 74 71 65 0
97.269997 87.510002 -413.89001 77 70 58 0
96.620003 85.349998 -413.82001 73 78 73 0
96.760002 85.519997 -413.94 74 75 71 0
103.3 130.77 -415.79001 73 64 44 0
102.8 131.35001 -415.73999 71 69 55 0
102.68 130.66 -415.70999 72 56 38 0
95.790001 86.269997 -413.72 84 76 62 0
95.07 86.669998 -413.41 74 68 56 0
97.379997 133.06 -414.95001 76 66 56 0
98.410004 129.53999 -415.29999 82 72 64 0
97.959999 128.89999 -415.29001 74 69 55 0
98.040001 132.14 -415.10001 78 66 44 0
96.599998 131.3 -414.87 80 66 52 0
97.269997 120.96 -415.29001 90 82 70 0
96.610001 121.69 -415.10001 84 78 68 0
98.779999 74.389999 -413.28 83 75 62 0
98.800003 74.599998 -413.31 82 74 61 0
98.639999 74.660004 -413.26001 77 75 62 0
97.32 74.559998 -412.79999 79 73 57 0
99.860001 74.139999 -413.51001 85 75 39 0
99.860001 73.779999 -413.47 85 73 50 0
100.24 73.910004 -413.54999 83 76 54 0
95.839996 78.919998 -413.13 89 78 69 0
97.050003 78.330002 -413.26001 81 82 64 0
97.239998 78.470001 -413.31 81 82 64 0
96.349998 122.49 -414.89999 85 83 64 0
96.230003 122.31 -414.98001 85 83 64 0
96.230003 121.84 -415.12 83 82 72 0
96.279999 122.11 -415.04001 82 83 68 0
96.629997 123.32 -414.76001 90 78 64 0
99.470001 118.68 -415.64001 94 83 71 0
99.18 118.3 -415.76999 88 85 70 0
99.650002 118.24 -415.70999 94 89 70 0
97.57 74.889999 -412.92001 85 69 60 0
96.050003 79.529999 -413.35001 90 83 78 0
97.190002 78.18 -413.32001 81 80 60 0
95.970001 78.699997 -413.07999 86 78 61 0
97.730003 77.199997 -413.35001 82 74 56 0
97.57 76.980003 -413.32001 84 73 52 0
95.82 74.779999 -412.70999 85 73 54 0
96.779999 77.089996 -413.29001 89 74 59 0
96.860001 77.309998 -413.32999 88 75 53 0
96.720001 77.32 -413.29001 91 74 58 0
98.779999 91.699997 -414.20999 78 73 63 0
98.599998 133.11 -415.16 73 69 53 0
98.269997 133.62 -415.10001 82 67 50 0
100.28 135.64 -415.32999 81 69 54 0
99.760002 135.39 -415.26999 82 68 54 0
100.13 135.09 -415.34 78 70 55 0
98.269997 135.06 -415.04999 79 63 43 0
98.709999 134.86 -415.14001 79 60 46 0
98.809998 135.41 -415.10999 82 67 51 0
100.28 88.269997 -414.57999 85 75 74 0
100.01 88.269997 -414.57001 85 75 65 0
100.04 88 -414.54001 86 77 64 0
97.089996 88.029999 -413.85999 65 67 59 0
99.830002 88.43 -414.60999 84 76 70 0
99.529999 88.360001 -414.54999 83 74 64 0
99.989998 134.69 -415.32999 73 63 51 0
100.22 134.39 -415.35999 76 61 47 0
100.48 134.8 -415.39001 77 66 52 0
96.279999 82.010002 -413.42999 92 79 67 0
96.830002 123.19 -414.79999 84 77 64 0
96.32 74.239998 -412.59 85 72 59 0
98.07 124.65 -415.17999 84 73 56 0
97.889999 124.18 -415.13 82 76 56 0
94.669998 124.4 -414.88 88 79 74 0
96.82 126.21 -415.03 87 73 57 0
97.510002 136.75999 -414.91 72 68 55 0
97.339996 75.690002 -412.98001 85 76 57 0
97.730003 75.989998 -413.07001 81 75 66 0
97.349998 76.07 -413.07001 87 78 68 0
98.019997 123.16 -415.10001 85 76 61 0
97.800003 122.85 -415.01999 84 76 63 0
98.169998 122.66 -415.10999 84 77 57 0
97.309998 122.08 -414.95001 86 81 67 0
98.309998 80.209999 -413.84 83 81 66 0
98.5 80.330002 -413.85999 85 81 65 0
98.360001 80.459999 -413.82999 84 83 63 0
98.900002 133.63 -415.20001 76 66 48 0
99.529999 133.56 -415.28 73 68 55 0
99.269997 134.08 -415.23999 83 65 46 0
98.639999 81.360001 -413.76999 86 80 69 0
98.300003 81.339996 -413.70999 86 81 70 0
98.459999 81.029999 -413.78 84 82 75 0
96.480003 124.33 -414.87 90 78 65 0
99.849998 128.16 -415.39999 72 66 50 0
99.599998 127.79 -415.42001 78 69 52 0
100.09 127.8 -415.45999 78 68 57 0
98.690002 81.019997 -413.82001 84 82 75 0
98.529999 80.82 -413.82999 81 83 70 0
98.660004 80.75 -413.85001 81 83 70 0
96.110001 86.5 -413.79999 83 74 61 0
96.089996 86.309998 -413.82001 86 78 63 0
97.129997 138.05 -414.79999 74 64 40 0
98.480003 139.32001 -415.23001 74 68 55 0
98.209999 83.449997 -413.73999 83 83 66 0
97.849998 83.529999 -413.70001 85 81 66 0
98.019997 82.919998 -413.69 91 81 70 0
97.900002 81.129997 -413.64999 84 78 62 0
98.18 80.919998 -413.73999 84 79 51 0
96.790001 86.57 -414.01001 80 72 56 0
96.529999 86.470001 -413.95999 83 72 59 0
99.739998 83.309998 -414.06 80 76 55 0
99.580002 83.589996 -414.04999 82 76 56 0
98.330002 87.07 -414.22 81 75 56 0
98.330002 86.790001 -414.29001 83 76 60 0
98.550003 86.980003 -414.28 83 78 61 0
97.129997 141.63 -415.48999 86 87 80 0
96.610001 140.5 -414.87 77 78 73 0
96.639999 140.71001 -414.92001 81 84 75 0
95.279999 121.79 -415.23001 0 0 0 0
97.459999 137.13 -414.89001 76 68 50 0
97.650002 137.60001 -414.89001 74 65 43 0
96.129997 141.53999 -415.07001 82 82 74 0
96.529999 141.55 -415.17999 84 84 77 0
96.940002 86.739998 -413.98999 77 73 58 0
96.68 86.699997 -413.92999 81 72 58 0
96.379997 85.830002 -413.89999 82 77 80 0
95.68 85.75 -413.62 77 79 71 0
96.75 85.150002 -413.76999 71 78 70 0
97.120003 84.860001 -413.75 78 71 60 0
97.129997 85.25 -413.89999 88 79 72 0
96.5 86.620003 -413.89999 82 74 60 0
96.470001 84.910004 -413.62 75 77 66 0
97.989998 129.73 -415.25 84 72 57 0
98.029999 130.28 -415.23999 84 70 51 0
99.139999 138.41 -415.20001 75 63 48 0
98.68 137.92999 -415.06 77 64 52 0
96.190002 141.17 -414.91 82 81 74 0
96.150002 122.77 -414.84 89 76 59 0
97.610001 138.25 -414.89001 74 63 45 0
97.120003 138.67999 -414.79999 76 66 51 0
97.779999 136.42999 -414.92999 80 69 49 0
95.360001 141.09 -414.63 80 79 79 0
99.410004 73.860001 -413.38 85 71 51 0
99.040001 74.139999 -413.32999 86 79 61 0
96.5 141.28 -415.04999 84 83 76 0
96.75 141.52 -415.23001 84 86 80 0
96.699997 141.42 -415.17001 84 84 77 0
97.699997 85.599998 -414.12 73 78 70 0
97.910004 85.720001 -414.19 67 76 71 0
97.790001 85.800003 -414.20999 67 76 71 0
98.660004 139.39999 -415.28 76 76 66 0
96.43 78.029999 -413.14001 85 79 65 0
97.360001 76.68 -413.25 83 74 60 0
97.449997 76.5 -413.20001 84 74 63 0
97.559998 76.660004 -413.23001 87 76 56 0
96.809998 78.790001 -413.23001 85 77 67 0
97.160004 76.720001 -413.28 86 77 66 0
97.849998 137.00999 -414.92001 76 67 61 0
100.81 136.05 -415.39001 77 63 47 0
100.29 136.28 -415.29999 78 68 45 0
97.110001 123.04 -414.87 89 78 73 0
96.900002 122.91 -414.82001 86 78 68 0
97.269997 122.67 -414.89999 95 78 68 0
98.25 130.64 -415.26001 78 64 41 0
96.949997 121.27 -415.23001 89 84 66 0
97.790001 88.07 -414.07001 70 75 66 0
97.989998 88.330002 -414.16 67 68 62 0
97.690002 88.599998 -414.12 73 69 66 0
97.519997 80.68 -413.57999 88 81 64 0
97.230003 79.800003 -413.51999 88 79 70 0
98.309998 76.620003 -413.20999 90 77 66 0
98.169998 76.779999 -413.23001 90 77 66 0
98.010002 76.620003 -413.19 89 76 61 0
96.269997 123.68 -414.76999 89 79 67 0
97.93 122.5 -415.04001 82 78 61 0
96.940002 121.46 -415.14001 87 83 61 0
97.440002 122.94 -414.94 92 76 70 0
97.629997 122.58 -414.98001 87 77 65 0
94.25 122.75 -415.20999 0 0 0 0
96.870003 74.940002 -412.82999 85 73 56 0
96.589996 77.410004 -413.23999 91 74 58 0
96.959999 78.099998 -413.28 83 76 61 0
96.779999 78.279999 -413.20999 86 77 64 0
96.699997 77.970001 -413.23999 85 77 63 0
97.209999 76.489998 -413.20999 87 76 69 0
98.639999 77.690002 -413.26999 85 75 44 0
98.739998 77.660004 -413.26999 85 75 44 0
98.709999 77.82 -413.28 85 75 44 0
96.610001 76.459999 -413.14999 89 78 58 0
97.440002 141.33 -415.54999 85 87 81 0
100.93 122.18 -415.63 91 76 61 0
100.86 122.54 -415.60001 88 76 55 0
100.64 122.04 -415.60001 86 77 67 0
99.709999 86.540001 -414.45999 85 79 75 0
99.910004 86.230003 -414.41 79 80 68 0
100.17 86.510002 -414.5 84 76 70 0
97.93 140.64 -415.35999 87 84 75 0
97.690002 140.81 -415.32999 84 82 76 0
98.160004 128.32001 -415.32999 87 65 47 0
99.769997 92.07 -414.48999 80 72 59 0
99.760002 91.790001 -414.48001 78 74 65 0
98.870003 92.459999 -414.32001 65 68 74 0
98.650002 92.43 -414.23001 67 69 70 0
97.639999 76.32 -413.13 88 77 61 0
96.989998 77.099998 -413.34 86 71 58 0
97.580002 83.18 -413.66 89 82 68 0
97.489998 86.800003 -414.13 71 77 64 0
97.739998 86.970001 -414.14001 79 74 55 0
97.510002 87.110001 -414.04999 78 72 60 0
97.379997 84.300003 -413.69 81 74 62 0
96.620003 87.080002 -413.76999 78 71 60 0
96.440002 87.120003 -413.70001 79 68 65 0
98.449997 92.239998 -414.06 69 65 67 0
98.269997 92.089996 -413.97 74 69 67 0
97.25 86.360001 -414.19 77 77 66 0
97.099998 86.160004 -414.17999 80 80 72 0
97.309998 86.25 -414.22 80 80 72 0
96.709999 84.449997 -413.59 80 73 68 0
97.879997 122.2 -415.04001 82 81 63 0
98.190002 122.19 -415.12 84 80 64 0
96.709999 86.970001 -413.82999 78 71 60 0
96.75 86.830002 -413.89999 79 72 58 0
96.910004 86.940002 -413.91 77 72 58 0
96.919998 79.120003 -413.34 83 77 64 0
96.959999 141.48 -415.29999 85 85 81 0
97.919998 80.739998 -413.69 82 80 61 0
98.150002 80.5 -413.78 86 81 60 0
98.690002 76.279999 -413.23001 86 76 59 0
98.870003 76.529999 -413.26999 86 76 62 0
98.519997 76.480003 -413.22 88 76 61 0
97.800003 75.510002 -413.04001 86 77 61 0
99.370003 73.050003 -413.26001 84 74 60 0
99.699997 72.839996 -413.35999 85 75 60 0
99.980003 73.230003 -413.45001 84 77 70 0
97.419998 73.699997 -412.64001 84 77 56 0
97.459999 74.050003 -412.70999 86 71 58 0
97.290001 75.220001 -412.92001 85 75 62 0
97.650002 73.980003 -412.76999 85 73 61 0
97.699997 73.830002 -412.75 85 75 65 0
98.059998 73.370003 -412.79999 90 78 72 0
96.68 87.18 -413.75 79 71 61 0
98.120003 88.07 -414.14001 75 71 54 0
98.290001 88.099998 -414.17999 75 71 54 0
96.339996 76.559998 -413.07001 85 77 62 0
97.5 86.529999 -414.20999 76 78 68 0
97.639999 86.43 -414.26001 79 78 71 0
97.690002 86.550003 -414.23999 79 78 71 0
96.860001 85.339996 -413.89001 77 77 72 0
97.910004 82.300003 -413.66 91 78 67 0
96.209999 83.18 -413.39999 90 78 77 0
98.93 88.309998 -414.38 75 74 65 0
98.089996 85.730003 -414.20001 65 80 73 0
98 85.870003 -414.25 65 80 73 0
96.610001 86.910004 -413.82999 79 72 58 0
98.919998 135.98 -415.07999 75 70 49 0
98.029999 126.84 -415.29999 85 71 59 0
98.239998 120.61 -415.39001 87 79 67 0
97.720001 120.29 -415.45999 81 80 67 0
98.150002 119.83 -415.54999 83 78 54 0
97.360001 121.22 -415.17999 90 81 68 0
99.290001 125.9 -415.37 85 78 62 0
99.230003 126.18 -415.39001 82 78 62 0
98.860001 126.08 -415.35001 85 76 60 0
97.589996 124.76 -415.09 81 77 56 0
96.989998 120.64 -415.44 89 80 72 0
96.75 120.5 -415.51999 89 80 72 0
97.260002 126.38 -415.10999 86 73 49 0
97.959999 127.31 -415.32001 84 71 51 0
97.440002 141.46001 -415.64999 85 87 81 0
99.199997 126.46 -415.39999 82 72 59 0
98.330002 88.209999 -414.20999 72 70 60 0
97.519997 121.08 -415.23001 86 81 66 0
98.129997 138.36 -415 73 65 52 0
97.32 140.96001 -415.20001 82 83 78 0
98.599998 73.989998 -413.14001 87 77 57 0
98.510002 74.349998 -413.17999 85 74 62 0
98.309998 73.959999 -413.01999 84 77 56 0
99 93.68 -414.75 56 60 54 0
99.050003 93.559998 -414.73999 58 61 57 0
99.129997 93.660004 -414.76999 57 64 58 0
97.769997 135.81 -414.95001 74 67 48 0
100.11 136.86 -415.25 80 67 50 0
99.919998 136.45 -415.23001 78 65 49 0
97.480003 140.99001 -415.31 79 84 77 0
97.550003 140.81 -415.23999 79 84 77 0
98.309998 135.62 -415.01999 79 67 55 0
97.830002 141.12 -415.67001 86 87 78 0
97.93 141.12 -415.73001 86 85 78 0
99.150002 134.61 -415.22 78 62 41 0
98.620003 134.23 -415.14999 83 70 53 0
97.370003 120.62 -415.39001 91 80 72 0
97.309998 122.32 -414.92001 87 78 66 0
98.529999 122.31 -415.20999 85 78 60 0
98.470001 122.92 -415.20999 88 76 60 0
98.809998 123.24 -415.32001 83 75 60 0
98.889999 122.55 -415.32001 84 79 63 0
97.769997 87.300003 -414.07001 80 72 58 0
97.519997 87.440002 -413.98001 76 71 59 0
99 73.830002 -413.26001 88 81 64 0
98.779999 73.860001 -413.17001 91 81 59 0
98.830002 73.620003 -413.13 91 80 59 0
97.07 76.230003 -413.13 88 78 69 0
99 83.639999 -413.89001 89 79 61 0
99.230003 83.370003 -413.92999 87 78 61 0
99.370003 83.860001 -414.01001 85 78 61 0
98.360001 131.07001 -415.25 76 63 48 0
99.07 139.27 -415.35001 71 67 64 0
97.160004 74.779999 -412.82999 82 73 59 0
97.07 73.779999 -412.57999 83 73 47 0
97.339996 76.32 -413.14999 85 75 65 0
97.019997 121.66 -415.04999 87 83 61 0
97.290001 121.69 -415.03 87 82 72 0
98.660004 120.12 -415.47 86 76 66 0
98.860001 120.72 -415.41 78 80 68 0
98.290001 85.599998 -414.16 73 82 71 0
98.260002 85.870003 -414.25 70 80 75 0
98.110001 74.410004 -413.03 86 71 57 0
99.470001 91.900002 -414.39001 78 73 67 0
99.43 91.639999 -414.39001 78 68 63 0
97.32 127.9 -415.23001 83 70 50 0
97.839996 80.370003 -413.69 88 78 67 0
97.529999 80.160004 -413.60001 89 79 72 0
97.629997 79.739998 -413.60999 88 77 67 0
97.900002 79.730003 -413.70001 87 79 67 0
96.82 140.2 -414.88 76 69 61 0
96.309998 140.35001 -414.76999 67 61 58 0
97.290001 139.78 -414.94 68 57 54 0
97.870003 139.7 -415.09 78 70 62 0
97.089996 129.03999 -415.06 81 73 54 0
99.279999 87.25 -414.41 84 78 66 0
99.230003 86.93 -414.42999 82 79 69 0
99.5 87.110001 -414.47 84 79 70 0
98.419998 74.800003 -413.17999 83 75 61 0
98.690002 74.980003 -413.26001 81 76 61 0
98.529999 75.260002 -413.20001 85 74 57 0
98.949997 131.34 -415.31 72 66 46 0
101.47 84.029999 -414.34 84 70 50 0
101.19 83.959999 -414.32999 88 72 54 0
101.26 83.830002 -414.29999 83 73 49 0
102.03 82.110001 -414.23999 85 76 58 0
101.95 81.830002 -414.23999 87 76 58 0
102.24 81.839996 -414.29001 83 76 58 0
95.949997 85.709999 -413.70999 82 80 72 0
96.129997 85.730003 -413.78 85 79 76 0
98.480003 77.360001 -413.28 90 76 55 0
98.419998 77.019997 -413.26999 91 78 61 0
98.800003 77.239998 -413.29999 89 79 58 0
97.709999 141.19 -415.64999 86 85 79 0
99.790001 123.34 -415.48001 83 75 60 0
97.220001 125.85 -415.07001 85 77 49 0
97.57 121.97 -415 84 84 72 0
97.510002 121.71 -415.04001 87 82 72 0
97 120.25 -415.51999 91 75 63 0
97.25 120.25 -415.5 84 82 63 0
98.040001 121.23 -415.23001 85 80 59 0
97.790001 120.88 -415.29999 81 81 66 0
99.050003 87.349998 -414.32999 84 78 63 0
99.059998 87.589996 -414.29999 81 79 62 0
97.910004 76.459999 -413.16 90 75 60 0
98 76.260002 -413.13 84 72 60 0
97.82 77.800003 -413.42001 86 76 58 0
97.559998 77.459999 -413.41 84 76 56 0
99.209999 91.800003 -414.32001 78 71 62 0
99.089996 91.620003 -414.29999 78 71 62 0
100.9 131.60001 -415.54001 66 59 33 0
100.42 132.14 -415.45999 75 64 54 0
97.739998 84.769997 -413.84 79 71 70 0
100.04 92.25 -414.57999 80 67 60 0
100.07 92.419998 -414.60999 80 67 60 0
99.860001 92.360001 -414.54999 81 72 63 0
98.529999 81.760002 -413.70999 85 81 64 0
98.019997 81.739998 -413.64999 89 81 61 0
99.389999 120.49 -415.45001 86 77 59 0
99.860001 120.25 -415.51001 88 77 64 0
99.809998 120.77 -415.5 87 75 63 0
98.400002 82.339996 -413.69 88 78 64 0
98.360001 80.720001 -413.81 84 82 63 0
98.510002 80.589996 -413.85001 84 81 65 0
97.290001 123.22 -414.92001 89 77 67 0
97.599998 123.24 -415 85 75 70 0
98.080002 73.199997 -412.79001 90 76 65 0
98.370003 73.059998 -412.87 87 75 58 0
95.529999 123.31 -414.78 86 78 72 0
98.029999 83.809998 -413.75 83 82 65 0
97.839996 140.86 -415.45001 87 84 77 0
96.93 140.47 -414.95001 80 68 71 0
98.550003 126.54 -415.34 85 74 60 0
99.160004 78.980003 -413.56 87 77 64 0
99.269997 79.160004 -413.63 83 76 61 0
98.389999 127.95 -415.35999 82 67 40 0
99.830002 126.78 -415.47 79 68 47 0
99.160004 126.95 -415.42001 80 72 60 0
101.78 85.870003 -414.57001 83 75 60 0
101.28 86.139999 -414.56 84 76 67 0
101.27 85.610001 -414.47 80 74 66 0
99.480003 84.410004 -414.09 84 72 58 0
99.150002 84.099998 -413.98001 86 76 57 0
101.05 129.06 -415.57001 72 70 55 0
101.33 128.7 -415.60999 71 64 53 0
101.35 129.32001 -415.63 77 67 55 0
105.66 130.99001 -416.04001 74 63 43 0
106.23 131.03999 -416.14001 72 60 41 0
105.97 131.61 -416.07999 71 62 45 0
97.769997 83.989998 -413.73001 88 78 69 0
100.38 74.82 -413.66 82 77 62 0
100.44 74.589996 -413.67001 84 75 50 0
100.66 74.919998 -413.70999 84 74 64 0
97.879997 84.360001 -413.79999 78 77 66 0
98.199997 84.290001 -413.85001 80 77 69 0
98.199997 84.660004 -413.89999 79 77 66 0
99.400002 86.279999 -414.38 81 79 79 0
98.330002 73.269997 -412.87 88 74 64 0
98.029999 87.470001 -414.10001 78 73 57 0
98.260002 87.339996 -414.14999 80 74 56 0
98.019997 87.110001 -414.16 81 75 56 0
98.199997 76.459999 -413.17999 89 72 60 0
99.769997 77.93 -413.51001 88 78 65 0
99.449997 78.040001 -413.45999 82 75 59 0
99.339996 77.690002 -413.42001 96 79 67 0
98.68 79.93 -413.87 85 80 66 0
98.769997 75.690002 -413.23999 85 75 60 0
98.910004 75.32 -413.28 86 74 61 0
99.790001 75.480003 -413.42999 81 68 33 0
100.17 75.639999 -413.48999 81 71 45 0
100.06 76.050003 -413.41 80 71 50 0
104.68 74.669998 -414.89999 99 94 94 0
104.43 74.599998 -414.75 97 94 89 0
104.48 74.459999 -414.85001 92 89 90 0
99.019997 119.79 -415.5 86 79 63 0
99.010002 119.41 -415.57001 89 78 64 0
99.32 119.5 -415.51999 90 78 60 0
97.959999 118.08 -415.94 88 80 68 0
97.75 118.25 -415.87 81 77 69 0
97.75 118 -415.98001 83 80 67 0
98.150002 117.38 -416.07999 87 84 77 0
97.919998 117.73 -416.04001 87 87 73 0
98.769997 118.32 -415.84 80 84 70 0
98.93 117.92 -415.87 82 87 74 0
98.669998 118.7 -415.79001 82 82 67 0
98.419998 118.69 -415.79999 80 81 72 0
98.459999 118.39 -415.87 84 82 66 0
97.989998 118.37 -415.85001 84 80 72 0
98.010002 118.63 -415.76999 80 80 76 0
97.75 118.57 -415.75 79 79 72 0
98.220001 118.71 -415.78 80 81 72 0
98.059998 118.91 -415.73001 84 81 79 0
99.739998 121.35 -415.47 86 76 65 0
99.769997 121.99 -415.47 85 81 58 0
99.300003 121.61 -415.39999 87 77 62 0
98.32 118.9 -415.75 86 80 73 0
99.040001 77.730003 -413.35001 86 77 50 0
98.860001 77.629997 -413.29999 85 78 57 0
99 77.489998 -413.32999 85 78 57 0
98.599998 78.220001 -413.35999 84 77 62 0
98.639999 78.540001 -413.42999 87 78 64 0
100.45 87.980003 -414.57001 89 77 58 0
98.610001 88.139999 -414.23999 78 72 49 0
98.720001 88.18 -414.26999 78 72 49 0
99.400002 91.290001 -414.42001 82 73 57 0
98.360001 78.080002 -413.38 80 76 62 0
98.080002 78.029999 -413.42001 84 78 62 0
98.25 77.919998 -413.38 78 75 58 0
98.860001 82.080002 -413.75 85 81 60 0
95.769997 82.870003 -413.28 90 80 65 0
98.029999 84.089996 -413.79999 82 80 67 0
99.580002 81.870003 -413.91 89 81 65 0
99.139999 81.75 -413.81 89 81 57 0
99.220001 81.279999 -413.88 90 81 67 0
97.809998 88.980003 -414.23001 74 69 70 0
97.75 123.64 -415.07001 87 82 69 0
98.279999 123.61 -415.20001 86 75 65 0
98.900002 121.93 -415.32001 82 79 64 0
98.839996 81.650002 -413.76001 84 81 61 0
95.720001 83.059998 -413.28 89 79 66 0
97.360001 140.57001 -415.09 85 82 72 0
97.220001 140.45 -415.01999 86 78 69 0
98.610001 138.53 -415.13 72 63 46 0
98.889999 138.88 -415.25 67 63 49 0
98.550003 139 -415.20001 67 62 41 0
99.480003 138.71001 -415.29999 65 62 55 0
99.68 138.98 -415.37 77 70 71 0
99.470001 139 -415.35001 74 72 64 0
99.230003 135.14999 -415.20001 73 66 46 0
99.379997 135.7 -415.17999 80 66 45 0
98.199997 140.48 -415.39001 87 86 77 0
98.980003 74.410004 -413.35001 84 76 61 0
98.470001 73.410004 -412.94 88 75 61 0
98.139999 75.949997 -413.13 78 74 59 0
98.32 75.589996 -413.16 87 73 51 0
97.879997 86.309998 -414.32001 81 79 71 0
97.839996 85.970001 -414.26999 74 80 73 0
96.790001 87.07 -413.82001 78 71 60 0
98.07 137.89999 -414.95001 74 69 46 0
98.620003 92.290001 -414.14999 67 69 70 0
98.440002 92.379997 -414.12 69 65 67 0
99.080002 92.360001 -414.34 62 69 67 0
97.449997 119.97 -415.54001 79 78 65 0
97.75 119.75 -415.60001 81 80 57 0
99.010002 118.7 -415.73001 84 82 66 0
99.199997 119.1 -415.60999 89 82 63 0
98.849998 119.08 -415.67001 88 82 65 0
97.949997 141.25 -415.85001 86 87 78 0
103.13 134.99001 -415.73999 76 67 55 0
102.85 134.98 -415.69 78 67 52 0
103.07 134.53999 -415.70999 72 64 47 0
101.76 133.36 -415.60001 75 65 53 0
101.76 132.82001 -415.60999 75 66 48 0
102.26 132.99001 -415.66 76 65 48 0
97.239998 140.21001 -414.98999 78 70 62 0
97.910004 86.620003 -414.26999 82 78 68 0
97.769997 86.519997 -414.26999 79 78 71 0
98.629997 84.93 -414.01001 78 78 67 0
98.540001 84.400002 -413.91 79 73 61 0
99.209999 129.74001 -415.32001 82 75 54 0
98.849998 130.00999 -415.32001 89 71 56 0
98.860001 129.36 -415.29999 78 68 53 0
99.410004 93.980003 -414.82999 62 64 58 0
99.730003 93.970001 -414.89001 66 65 63 0
99.519997 94.279999 -414.92001 64 67 58 0
99.07 85.290001 -414.14001 82 79 64 0
98.610001 85.43 -414.13 81 81 73 0
98.129997 94 -414.94 52 54 42 0
97.459999 86.330002 -414.23999 76 78 68 0
96.959999 85.720001 -414.07001 73 76 72 0
98.629997 93.440002 -414.64999 56 57 57 0
97.290001 121.44 -415.10001 89 83 70 0
97.480003 121.41 -415.10999 89 83 70 0
98.110001 121.83 -415.13 87 82 68 0
97.830002 121.89 -415.06 83 83 70 0
98.010002 121.58 -415.14001 84 80 77 0
102.07 79.949997 -414.26999 79 71 55 0
102.27 80.029999 -414.29001 82 72 51 0
102.06 80.220001 -414.35001 78 69 55 0
99.959999 84.690002 -414.23001 84 71 59 0
99.760002 84.099998 -414.14001 83 76 53 0
99.709999 127.32 -415.45999 80 72 56 0
99.150002 127.46 -415.41 78 68 51 0
96.379997 123.55 -414.76001 90 78 61 0
96.43 123.8 -414.79999 91 79 68 0
99.029999 132.05 -415.28 78 63 39 0
99.68 131.89999 -415.37 73 63 55 0
99.529999 131.03999 -415.38 74 64 47 0
100.21 131.33 -415.45001 71 60 48 0
98.690002 123.83 -415.31 84 73 57 0
100.32 127.29 -415.51001 77 67 55 0
99.199997 133.10001 -415.25 70 60 37 0
99.720001 133.08 -415.32999 72 68 58 0
99.720001 128.61 -415.34 72 70 52 0
99.949997 129.14 -415.35999 77 67 54 0
99.379997 129.14999 -415.29999 75 71 60 0
98.279999 127.57 -415.35999 82 68 54 0
98.709999 127.69 -415.38 82 71 57 0
99.730003 124.9 -415.44 76 73 57 0
99.919998 124.44 -415.48999 81 70 51 0
100.4 124.77 -415.56 79 72 51 0
97.610001 73.400002 -412.67001 86 78 62 0
98.080002 75.029999 -413.07999 78 74 55 0
97.830002 73.199997 -412.72 88 78 66 0
100.21 121.72 -415.54999 84 80 61 0
100.36 122.47 -415.54001 82 80 61 0
97.709999 121.32 -415.14999 87 81 74 0
104.51 119.57 -416.23999 81 70 56 0
104.17 119.23 -416.17001 82 74 54 0
104.78 119.22 -416.29001 78 70 48 0
98.540001 119.01 -415.72 87 80 67 0
98.25 119.23 -415.67001 92 79 71 0
98.269997 134.59 -415.07999 86 66 47 0
97.690002 135.14999 -414.97 77 68 50 0
97.959999 73.959999 -412.89001 84 72 59 0
104.08 133.67 -415.85999 77 69 51 0
104.67 133.73 -415.92999 73 64 43 0
104.2 134.21001 -415.89001 77 68 39 0
98.239998 86.389999 -414.35001 82 82 70 0
98.68 86.510002 -414.38 84 83 72 0
98.419998 86.610001 -414.34 84 81 64 0
98.050003 79.699997 -413.75 85 77 67 0
98.010002 79.860001 -413.75 87 80 72 0
98.129997 79.559998 -413.76001 85 77 62 0
98.139999 79.790001 -413.79001 85 77 67 0
98.220001 89.040001 -414.45001 73 70 73 0
98.870003 87.589996 -414.25 83 76 58 0
98.699997 87.620003 -414.20001 83 76 58 0
97.580002 122.27 -414.97 84 77 64 0
98.919998 81.309998 -413.82001 86 82 66 0
98.900002 80.870003 -413.87 78 80 68 0
100.09 82.349998 -413.95999 85 78 54 0
99.800003 82.599998 -413.95001 86 75 51 0
100.36 118.38 -415.60001 86 82 66 0
100.43 118.69 -415.51999 87 79 65 0
100.14 118.67 -415.54001 89 81 70 0
98.790001 128.05 -415.35001 84 71 50 0
99.059998 128.31 -415.32001 77 70 55 0
98.519997 127.19 -415.37 80 74 55 0
97.800003 121.6 -415.10001 84 80 77 0
99.080002 79.129997 -413.63 83 76 61 0
98.860001 79.510002 -413.79001 83 75 60 0
99.07 79.480003 -413.76001 79 76 61 0
99.07 79.660004 -413.79999 83 75 60 0
98.739998 77.489998 -413.28 88 77 51 0
98.699997 93.879997 -414.76999 50 56 53 0
98.730003 93.720001 -414.72 55 59 58 0
98.900002 93.919998 -414.76999 55 59 55 0
98.889999 121.35 -415.35001 89 80 55 0
98.209999 118.19 -415.92001 92 80 69 0
98.389999 73.610001 -412.95999 87 77 59 0
98.620003 73.57 -413.03 89 77 55 0
98.550003 73.790001 -413.07001 87 77 57 0
99.650002 74.980003 -413.48001 84 74 50 0
99.339996 75.300003 -413.37 87 67 52 0
98.709999 73.739998 -413.10999 89 77 55 0
99.620003 74.550003 -413.5 85 74 62 0
99.290001 74.82 -413.42999 84 74 58 0
98.889999 94.18 -414.85001 55 58 54 0
97.75 117.75 -416.07999 82 85 64 0
101.27 81.07 -414.23001 86 74 54 0
101.36 80.830002 -414.29001 83 74 55 0
101.54 81.050003 -414.31 85 74 54 0
99.559998 85.540001 -414.23999 85 80 68 0
99.980003 85.300003 -414.28 85 75 62 0
100.09 85.809998 -414.35001 83 74 66 0
98.620003 88.019997 -414.22 78 72 49 0
98.739998 88.099998 -414.26001 78 72 49 0
98.870003 88.839996 -414.63 70 77 67 0
98.940002 80.489998 -413.89001 83 77 65 0
98.699997 80.529999 -413.87 84 81 65 0
98.699997 80.239998 -413.88 85 81 65 0
99.910004 81.669998 -413.97 85 82 70 0
98.470001 87.5 -414.16 84 76 57 0
98.489998 87.720001 -414.16 88 73 55 0
99.160004 87.830002 -414.32999 79 81 68 0
98.739998 117.36 -415.98999 91 84 75 0
99.209999 117.61 -415.88 90 88 85 0
100.5 118.03 -415.67999 102 95 74 0
100.85 117.89 -415.69 116 89 75 0
100.73 118.18 -415.62 107 89 69 0
98.989998 91.870003 -414.25 76 72 58 0
98.279999 92.449997 -414.09 68 62 63 0
98.459999 87.309998 -414.19 80 76 58 0
98.599998 87.220001 -414.23999 82 76 58 0
98.099998 86.809998 -414.25 83 76 62 0
98.089996 86.559998 -414.31 82 78 68 0
98.449997 88.089996 -414.20001 80 71 52 0
102.76 85.709999 -414.70001 80 73 63 0
103.45 85.82 -414.82001 89 73 53 0
103 86.089996 -414.82001 81 72 52 0
99 87.730003 -414.28 81 79 62 0
98.589996 92.209999 -414.10999 73 68 65 0
100.97 82.480003 -413.92001 90 78 66 0
101.32 82.830002 -414.01999 80 81 63 0
100.95 82.769997 -413.95999 88 75 57 0
98.93 74.57 -413.35001 82 74 61 0
98.559998 75.989998 -413.20001 80 74 56 0
99.019997 76.169998 -413.26999 90 72 59 0
100.32 92.480003 -414.70999 69 69 57 0
100.52 92.290001 -414.76001 82 72 62 0
100.46 92.739998 -414.81 61 72 64 0
100.23 129.69 -415.42001 74 69 49 0
100.04 130.44 -415.42999 67 66 46 0
99.690002 129.77 -415.35001 75 67 46 0
100.24 133.41 -415.39001 75 67 56 0
99.889999 133.98 -415.32001 79 68 49 0
98.25 94.25 -415.03 47 54 41 0
99.510002 93.07 -414.69 67 68 63 0
99.190002 93.110001 -414.64999 66 67 63 0
99.300003 92.82 -414.57001 62 67 68 0
98.389999 79.480003 -413.79999 85 75 61 0
98.93 79.839996 -413.84 86 77 65 0
99.25 79.57 -413.76001 86 77 60 0
98.669998 73.32 -413 86 74 59 0
99.120003 73.440002 -413.20999 87 76 68 0
99.32 72.650002 -413.23001 82 75 63 0
99.07 72.75 -413.13 93 75 63 0
99.410004 79.370003 -413.69 83 77 59 0
98.919998 85.989998 -414.29001 75 80 78 0
98.849998 85.730003 -414.23001 79 78 74 0
99.18 85.769997 -414.25 80 79 70 0
101.46 118.75 -415.60001 88 83 70 0
101.52 118.5 -415.60999 88 82 73 0
101.78 118.54 -415.67999 89 82 69 0
98.790001 74.099998 -413.23999 89 77 61 0
103.11 128.92 -415.73999 72 61 35 0
103.43 129.62 -415.76001 69 57 41 0
102.93 129.63 -415.70999 72 61 43 0
99.32 128.61 -415.29999 67 71 54 0
99.470001 128.22 -415.35001 73 68 50 0
98.519997 88.739998 -414.47 67 69 74 0
99.879997 88.68 -414.67999 80 77 74 0
99.589996 88.839996 -414.72 75 78 70 0
98.57 88.989998 -414.60001 75 74 71 0
100.82 128.62 -415.51001 72 71 58 0
100.24 128.46001 -415.42001 71 68 50 0
100.63 127.89 -415.51001 70 65 46 0
98.379997 93.919998 -414.85999 55 58 52 0
98.449997 94.160004 -414.94 48 55 48 0
99.849998 94.639999 -415.16 65 67 59 0
99.870003 94.75 -415.25 71 69 64 0
99.760002 94.709999 -415.17999 68 64 54 0
99.290001 77.230003 -413.37 83 76 64 0
99.029999 78.730003 -413.47 88 78 66 0
100.17 78.209999 -413.62 85 79 65 0
99.739998 78.290001 -413.54001 81 78 56 0
98.480003 117.93 -415.94 88 82 74 0
105.21 121.84 -416.26999 73 66 52 0
105.79 122.12 -416.29999 69 59 51 0
105.44 122.61 -416.23001 71 61 50 0
97.860001 73.330002 -412.73001 88 80 74 0
98.709999 79 -413.60001 85 77 64 0
98.699997 78.809998 -413.51999 85 77 64 0
99.290001 82.370003 -413.84 83 78 59 0
98.739998 91.970001 -414.17001 75 71 61 0
99.32 121.03 -415.42001 86 80 66 0
97.25 119.76 -415.57999 78 78 65 0
97.5 119.75 -415.59 80 80 59 0
100.68 135.32001 -415.39999 79 69 51 0
98.440002 93.760002 -414.78 57 58 61 0
100.49 118.96 -415.48001 87 80 72 0
100.59 119.24 -415.48001 88 83 77 0
100.25 119.22 -415.47 91 79 75 0
98.220001 118.49 -415.84 86 82 69 0
98.639999 119.51 -415.57999 89 80 68 0
99.610001 138.36 -415.26001 71 63 50 0
99.730003 138.7 -415.32001 69 62 48 0
102.81 137.49001 -415.85999 73 68 57 0
102.96 137.78999 -415.98001 79 76 72 0
102.56 137.69 -415.85001 75 65 68 0
99.050003 137.25 -415.07999 85 65 52 0
99.900002 138.50999 -415.31 68 62 48 0
99.989998 138.89 -415.39001 70 63 63 0
99.540001 85.959999 -414.31 81 79 66 0
98.889999 86.139999 -414.32999 80 82 82 0
98.910004 86.290001 -414.37 80 82 82 0
98.699997 86.160004 -414.34 80 81 80 0
98.230003 141.10001 -415.88 84 86 78 0
99.459999 132.58 -415.31 72 68 51 0
99.150002 127.91 -415.37 78 71 63 0
100.2 125.4 -415.48999 71 75 58 0
100.71 125.24 -415.60001 79 73 56 0
101.91 123.7 -415.79001 82 66 55 0
102.25 123.29 -415.79999 76 72 51 0
102.49 123.71 -415.87 75 67 38 0
99.309998 122.22 -415.39999 90 77 64 0
99.300003 122.91 -415.41 88 77 61 0
100.11 90.370003 -414.78 90 79 69 0
102.83 138.46001 -416.23001 93 93 85 0
103.31 138.38 -416.29999 90 92 82 0
103.11 138.81 -416.48999 87 90 85 0
100.65 121.41 -415.63 89 78 55 0
101.15 121.08 -415.70999 86 79 58 0
101.01 121.72 -415.67001 88 75 61 0
98.900002 76.889999 -413.29999 86 77 62 0
99.360001 76.709999 -413.34 83 77 61 0
99.629997 134.88 -415.28 78 65 47 0
98.769997 74.790001 -413.29999 81 76 61 0
103.82 133.32001 -415.82999 79 60 49 0
103.39 132.99001 -415.79999 77 58 42 0
104.04 132.75999 -415.87 76 64 43 0
100.16 84.18 -414.25 85 75 67 0
100.45 84.559998 -414.32999 80 70 51 0
98.309998 88.550003 -414.32001 69 71 68 0
98.43 88.330002 -414.26999 72 70 60 0
99.209999 88.32 -414.47 78 73 69 0
99.620003 92.449997 -414.51001 70 70 64 0
99.93 92.629997 -414.62 66 66 62 0
99.68 92.809998 -414.62 55 70 65 0
98.360001 76.25 -413.17999 84 74 54 0
100 75.120003 -413.54001 83 73 48 0
98.260002 79.629997 -413.81 83 77 65 0
98.279999 79.910004 -413.84 83 79 69 0
100 79.120003 -413.70999 85 78 66 0
99.730003 79.370003 -413.70001 83 78 61 0
100.19 138.47 -415.35999 69 66 50 0
100.41 137.97 -415.35001 75 64 56 0
100.53 138.42999 -415.44 74 65 64 0
102.75 96.82 -415.45999 83 83 72 0
102.74 97.32 -415.51001 82 77 76 0
98.650002 86.709999 -414.35999 84 79 62 0
98.910004 86.779999 -414.38 83 80 67 0
98.120003 88.839996 -414.34 74 73 69 0
98.870003 77.800003 -413.29999 86 77 50 0
102.72 77.269997 -414.01001 78 73 56 0
103.19 77.110001 -414.13 82 75 58 0
103.01 77.529999 -414.10999 80 71 54 0
99.050003 77.949997 -413.35001 85 72 59 0
99.209999 77.889999 -413.39999 88 75 56 0
99.25 78.080002 -413.39999 85 72 59 0
98.160004 86.040001 -414.29999 73 80 75 0
98.440002 86.239998 -414.35001 80 81 80 0
99.57 89.980003 -414.75 84 80 68 0
100.76 77.330002 -413.47 82 71 52 0
100.35 77.040001 -413.42001 84 70 55 0
100.48 76.919998 -413.41 84 70 47 0
100.94 123.02 -415.60999 82 72 55 0
100.36 120.44 -415.57999 85 76 65 0
100.11 118.14 -415.67999 93 88 66 0
99.919998 118.48 -415.60999 92 83 71 0
97.75 118.75 -415.69 83 81 74 0
100.65 116.52 -416.16 82 80 66 0
100.94 116.44 -416.16 84 80 52 0
100.87 116.78 -416.04001 84 77 65 0
100.06 132.67999 -415.39001 79 67 48 0
100.68 132.89 -415.48001 73 67 52 0
98.870003 87.720001 -414.25 83 76 58 0
99.879997 87.150002 -414.53 79 80 71 0
100.07 86.82 -414.54001 80 78 73 0
100.52 87.199997 -414.62 82 75 67 0
98.519997 77.650002 -413.29001 84 76 53 0
98 79.559998 -413.70999 85 78 63 0
99.220001 75.769997 -413.29999 84 72 57 0
98.849998 72.980003 -413.04999 89 74 63 0
98.489998 72.720001 -412.89999 85 75 63 0
99.830002 91.480003 -414.53 82 74 72 0
98.480003 80.050003 -413.87 85 80 66 0
103.64 78.150002 -414.25 79 65 55 0
103.89 77.75 -414.31 80 73 54 0
104.06 78.07 -414.34 76 65 45 0
100.11 83.18 -414.09 85 73 58 0
101.43 83.739998 -414.28 83 73 49 0
100.18 92.510002 -414.66 69 69 57 0
100.19 92.389999 -414.64999 81 65 57 0
98.93 92.870003 -414.51001 61 64 63 0
98.559998 92.879997 -414.42001 64 65 61 0
100.61 129.52 -415.48999 74 68 49 0
99.419998 89.809998 -414.76999 83 81 73 0
99.900002 93.589996 -414.87 63 65 63 0
99.480003 93.730003 -414.82001 61 64 61 0
99.470001 93.379997 -414.76999 66 66 58 0
99.239998 93.57 -414.76999 57 64 58 0
99.300003 93.830002 -414.79999 58 63 57 0
99.260002 93.720001 -414.79001 58 63 57 0
98.410004 89.18 -414.57001 81 79 77 0
101.13 88.900002 -414.70999 81 74 62 0
101.19 88.629997 -414.64999 81 72 64 0
101.48 89.050003 -414.73999 77 75 56 0
98.790001 87.150002 -414.29999 83 77 59 0
98.68 87.889999 -414.20999 83 74 54 0
100.79 126.54 -415.57001 78 67 60 0
100.95 127.25 -415.57999 76 67 54 0
100.46 126.84 -415.53 76 69 56 0
100.78 120.76 -415.66 89 79 68 0
100.24 121.08 -415.57001 90 77 58 0
99.459999 119.94 -415.48001 92 78 66 0
100.04 91.080002 -414.64001 87 83 74 0
100.26 92.239998 -414.66 81 65 57 0
99.889999 117.9 -415.78 95 91 71 0
99.410004 117.93 -415.81 93 90 75 0
100.15 89.120003 -414.81 79 78 75 0
99.919998 88.949997 -414.76001 80 79 74 0
98.620003 94.040001 -414.85001 48 55 48 0
101.28 94.339996 -415.26001 79 76 76 0
101.04 94.269997 -415.26001 81 77 70 0
101.03 94.099998 -415.25 78 78 69 0
100.38 76.580002 -413.41 83 68 38 0
100.07 76.519997 -413.38 86 69 43 0
99.209999 80.129997 -413.85999 88 78 71 0
99.239998 79.839996 -413.82001 89 75 66 0
99.510002 80.050003 -413.82999 92 78 68 0
97.699997 86.709999 -414.20999 77 78 63 0
98.720001 85.989998 -414.29001 74 80 77 0
98.470001 86.040001 -414.31 80 81 80 0
98.540001 85.790001 -414.23999 78 77 73 0
100.74 118.71 -415.51001 84 79 66 0
99.389999 89.639999 -414.81 83 82 75 0
99.669998 89.589996 -414.85001 82 79 75 0
100.08 92.900002 -414.73001 64 71 67 0
98.849998 93.699997 -414.73001 55 59 58 0
100.49 90.809998 -414.78 89 80 72 0
100.91 91.050003 -414.85999 85 80 82 0
100.56 91.239998 -414.78 89 84 79 0
100.45 129.10001 -415.44 75 68 51 0
100.78 129.17 -415.51001 74 68 54 0
101.29 119.01 -415.57001 86 79 68 0
100.64 76.419998 -413.51001 79 64 46 0
100.56 75.889999 -413.56 80 69 51 0
100.82 76.330002 -413.57001 81 63 48 0
98.099998 77.779999 -413.39001 82 74 62 0
99.760002 77.529999 -413.45999 86 78 75 0
101.52 88.519997 -414.67999 75 71 59 0
101.65 88.110001 -414.72 75 72 56 0
101.97 88.519997 -414.76001 72 75 50 0
100.48 78.93 -413.79999 88 73 61 0
100.77 79.040001 -413.87 86 75 55 0
100.55 79.32 -413.84 87 73 57 0
98.599998 77.959999 -413.32001 83 73 53 0
98.559998 77.790001 -413.29999 85 75 44 0
101.74 128.28999 -415.64999 75 63 50 0
101.21 128.02 -415.57999 75 68 65 0
100.58 78.260002 -413.70999 85 76 58 0
100.39 78.559998 -413.75 89 76 63 0
98.940002 78.940002 -413.56 86 77 65 0
100.56 94.010002 -415.14999 74 72 64 0
100.24 94.110001 -415.07001 65 69 63 0
100.38 93.870003 -415.06 70 69 62 0
101.39 138.91 -415.88 91 89 75 0
98.300003 137.41 -414.97 76 67 56 0
99.040001 84.599998 -414.01999 83 76 57 0
100.77 83.529999 -414.20001 82 74 59 0
100.49 83.290001 -414.13 85 74 63 0
100.68 83.150002 -414.07001 84 74 61 0
99 72.25 -413.10001 87 74 60 0
99.260002 72.25 -413.22 84 72 59 0
97.790001 87.650002 -414.04001 75 69 65 0
97.75 119.25 -415.67999 84 81 74 0
98.690002 92.629997 -414.34 57 67 66 0
100.48 77.400002 -413.47 86 71 54 0
100.18 78.860001 -413.73001 90 73 65 0
99.519997 85 -414.16 87 77 61 0
101.63 83.18 -414.16 85 77 61 0
101.65 83.5 -414.25 82 76 57 0
102.6 121.88 -415.84 84 73 55 0
102.72 121.36 -415.89001 88 75 56 0
103.09 121.89 -415.92999 81 71 44 0
103.73 124.33 -416.04999 79 68 61 0
103.72 123.61 -416.01001 72 63 48 0
104.32 123.99 -416.10001 75 67 58 0
100.81 76.730003 -413.51001 81 67 51 0
100.84 76.610001 -413.54001 81 67 51 0
100.37 76.209999 -413.45999 80 68 49 0
101.12 125.4 -415.67999 82 71 58 0
101.05 124.95 -415.70001 81 69 54 0
99.480003 125.42 -415.38 86 75 62 0
101.17 123.67 -415.67999 82 71 56 0
101.67 124.19 -415.79999 79 71 59 0
100.96 124.34 -415.67999 78 71 61 0
102.12 121.73 -415.79001 83 76 62 0
102.36 121.38 -415.82999 85 77 64 0
100.31 124.18 -415.56 80 71 60 0
100.2 123.72 -415.53 81 74 66 0
100.62 123.85 -415.60001 78 70 60 0
100.49 125.99 -415.51999 76 72 58 0
100.21 126.38 -415.48999 82 68 49 0
99.879997 125.9 -415.42999 80 72 65 0
99.860001 118.85 -415.54001 91 83 73 0
100.17 118.93 -415.5 89 81 73 0
99.919998 119.19 -415.5 91 83 70 0
98.870003 74.709999 -413.34 82 74 61 0
98.959999 74.940002 -413.34 84 74 60 0
98.879997 93.489998 -414.70999 58 58 57 0
99.040001 74.669998 -413.38 86 73 60 0
100.64 76.68 -413.47 80 65 45 0
100.31 72.699997 -413.54001 80 75 65 0
100.22 72.459999 -413.51001 77 72 65 0
100.47 72.470001 -413.60999 77 73 64 0
99.559998 76.309998 -413.32999 85 71 54 0
100.57 136.78999 -415.32999 77 68 50 0
101.09 136.84 -415.42001 72 69 50 0
100.7 137.42 -415.37 73 66 58 0
100.7 118.46 -415.56 82 78 65 0
101.79 82.400002 -414.16 89 78 67 0
101.87 82.260002 -414.19 91 76 62 0
102 82.389999 -414.20999 91 76 62 0
100.09 93.910004 -414.97 66 66 63 0
99.739998 94.82 -415.26999 68 64 54 0
99.629997 94.720001 -415.16 68 64 54 0
99.349998 92.540001 -414.47 66 68 59 0
99.309998 92.260002 -414.38 77 74 64 0
98.07 140.39 -415.29999 87 86 78 0
101.12 75.050003 -413.76999 89 74 60 0
101.4 75.620003 -413.79999 88 76 52 0
100.88 75.510002 -413.70001 87 77 63 0
99.050003 92.599998 -414.42999 54 65 65 0
99.139999 93.779999 -414.78 58 63 57 0
100.92 72.389999 -413.87 86 85 82 0
100.77 72.25 -413.76001 87 85 75 0
101.3 72.25 -414.12 82 84 86 0
99.650002 73.480003 -413.39001 86 74 39 0
102.54 135.85001 -415.67001 76 70 49 0
102.16 135.58 -415.60999 77 67 48 0
102.55 135.25999 -415.66 77 67 49 0
98.970001 79.309998 -413.70999 79 76 61 0
101.8 78.349998 -413.87 78 69 60 0
