# .PCD v0.7 - Point Cloud Data file format
VERSION 0.7
FIELDS x y z rgba
SIZE 4 4 4 4
TYPE F F F U
COUNT 1 1 1 1
WIDTH 1209
HEIGHT 1
VIEWPOINT 0 0 0 1 0 0 0
POINTS 1209
DATA ascii
106.62053 -4.3041916 -9.5791626 6180671
107.00053 -4.1741943 -9.5891418 6312769
108.51054 -3.3541946 -9.6191406 10528655
110.26054 -2.1141968 -9.5791626 13156271
110.92055 -1.4541931 -9.5291443 12562597
111.37053 -1.2241974 -9.5891418 14607285
111.70055 -0.9141922 -9.6091614 12887928
112.50053 0.74580383 -9.5291443 10388068
112.85054 1.555809 -9.5291443 10454634
113.36055 2.3358078 -9.6191406 8616553
113.15053 6.8958054 -9.5991516 10851463
112.69054 7.6058044 -9.5991516 13085855
112.17055 7.9858093 -9.5391541 13482403
111.41054 9.0758057 -9.5991516 12234905
110.61055 9.8658066 -9.6091614 10326917
108.21053 11.91581 -9.5691528 8944757
104.25053 13.725807 -9.5291443 8747376
104.58052 13.6558 -9.5791626 8878446
102.67055 14.205803 -9.5391541 9405300
101.25053 14.675804 -9.5891418 9206897
100.73055 14.785805 -9.5691528 9273968
97.030533 15.295799 -9.6091614 8879997
96.34053 15.385811 -9.6191406 9273212
93.190536 16.675804 -9.5991516 9866376
89.540543 17.615807 -9.5791626 10789800
86.750534 18.305809 -9.6091614 10197135
85.280533 18.675804 -9.5291443 10460824
83.750534 19.095802 -9.5991516 10131083
74.700546 21.255806 -9.5491638 8815996
73.900528 21.495811 -9.5691528 8882567
73.040543 21.755806 -9.5791626 9078146
71.280533 22.315804 -9.5691528 9735806
70.85054 22.485802 -9.5991516 9407874
68.220535 23.235802 -9.5791626 9998985
-9.1494598 24.02581 -9.5391541 8217157
-8.9094696 24.02581 -9.5691528 7363395
-8.7794647 24.035805 -9.6191406 7363395
-8.6694641 24.02581 -9.5991516 6444870
-7.3394623 24.035805 -9.5791626 6116432
-5.9794617 24.035805 -9.5791626 6313030
-9.9794617 24.135811 -9.5291443 6380370
-9.4594574 24.075813 -9.5991516 6379852
-5.3894653 24.075813 -9.5391541 6312258
-12.539459 24.325813 -9.5691528 7629667
-12.139465 24.345802 -9.6091614 8223079
-14.289459 24.535805 -9.5391541 3881786
-14.129471 24.52581 -9.5891418 4078136
-13.979462 24.485802 -9.5691528 4734511
-15.279465 24.635811 -9.5691528 3749941
-14.779465 24.605812 -9.5691528 3947834
61.770523 25.02581 -9.5891418 10921371
-0.39945984 25.225807 -9.5891418 6377279
0.11053467 25.345802 -9.5691528 6836028
2.1605377 25.585808 -9.5791626 6507576
10.84053 25.645805 -9.5891418 8021579
11.48053 25.615807 -9.5691528 8283734
12.150528 25.575813 -9.5591431 8154460
57.940536 25.7658 -9.5391541 11380382
56.920547 25.985802 -9.5991516 11708829
50.310532 27.02581 -9.5591431 11380376
24.870529 27.065804 -9.5691528 11250333
47.900528 27.245811 -9.5691528 11380119
45.910538 27.445808 -9.5691528 10921366
46.720535 27.365807 -9.5591431 10855575
31.730545 27.685799 -9.6091614 11184555
43.370529 27.66581 -9.5691528 10986906
32.570541 27.7658 -9.6091614 11381411
37.010544 28.02581 -9.5391541 10723730
47.220535 -27.494194 -9.5091553 3154971
48.060532 -27.414192 -9.5091553 3221014
51.990524 -27.044197 -9.4491577 3155224
52.500534 -27.004196 -9.4591675 3218967
53.050522 -26.954193 -9.4591675 3090972
53.700546 -26.894196 -9.4791565 3546133
56.450546 -26.554192 -9.519165 3482649
56.830521 -26.494194 -9.519165 3220760
61.250534 -25.434196 -9.4491577 3416855
73.540543 -22.234192 -9.4891663 3089689
85.570541 -17.864197 -9.4391479 2631200
86.290543 -17.58419 -9.4291382 2762015
87.290543 -17.234192 -9.4491577 3220764
89.60054 -16.464195 -9.4991455 3222581
92.160538 -15.104195 -9.4891663 2828576
97.180527 -11.534195 -9.4691467 3812376
97.440536 -11.174194 -9.4791565 3615775
97.960526 -10.214195 -9.4491577 4141866
99.910538 -8.5641937 -9.4891663 7295547
100.63054 -8.2241974 -9.4791565 7230770
101.60054 -7.744194 -9.4491577 6967874
105.64055 -4.6041946 -9.4591675 5259573
107.25053 -3.7941971 -9.4991455 6710603
109.10054 -2.6641922 -9.5091553 9406332
110.60054 -1.4641953 -9.4491577 12756373
111.12053 -1.244194 -9.519165 14665132
110.92055 -1.0741959 -9.4291382 13284771
111.29054 -0.90419769 -9.4891663 13351046
111.59053 -0.35419464 -9.4491577 15840669
112.11055 0.20580292 -9.4991455 11766908
112.64055 1.1958084 -9.4991455 10191986
112.54054 1.4958038 -9.4291382 10915191
112.92055 2.1158066 -9.4791565 9666152
112.93053 2.6058044 -9.4291382 10388332
113.22054 2.9558029 -9.5091553 9995376
113.40053 3.5658035 -9.519165 10257781
113.30052 4.2858047 -9.4491577 9667452
113.15053 6.1158066 -9.4991455 11705222
112.71053 7.0858078 -9.5091553 12166546
112.19054 7.4758072 -9.4391479 13743010
111.61055 8.505806 -9.4991455 13284515
110.62053 9.4558029 -9.4691467 9933699
108.75053 11.205803 -9.4391479 8878186
107.76054 12.175804 -9.519165 8878452
107.28053 12.385803 -9.4591675 8943715
105.43053 13.185799 -9.4491577 8682604
105.03053 13.305809 -9.4291382 8682096
104.74052 13.495811 -9.4891663 8747372
102.21053 14.215813 -9.4391479 9010794
98.770523 14.945808 -9.4291382 9931658
98.250534 15.035805 -9.4591675 9799808
95.420547 15.465813 -9.4391479 8814707
91.620529 17.055809 -9.4291382 10525079
89.010544 17.645805 -9.4691467 10657946
88.460526 17.795799 -9.5091553 10395029
87.790543 17.945808 -9.4791565 10525337
86.190536 18.4058 -9.519165 10000791
82.34053 19.235802 -9.4291382 10327176
81.760544 19.355812 -9.4491577 9932933
80.810532 19.625801 -9.5091553 9800581
79.680527 19.865807 -9.4391479 9667190
77.460526 20.495811 -9.4691467 8811627
72.240524 21.955803 -9.5091553 9209731
69.85054 22.735802 -9.519165 9802121
66.260544 23.755806 -9.519165 10065296
-9.0094604 23.985802 -9.4291382 10117962
-8.7894592 24.005806 -9.5091553 8415808
-8.6194611 23.985802 -9.4291382 6643013
-7.9194641 24.02581 -9.4691467 6313029
-7.6094666 24.0158 -9.4291382 6246981
-6.9594574 24.005806 -9.4391479 6443067
65.560532 23.965813 -9.519165 10787474
-10.869461 24.245811 -9.4491577 7169888
-4.7894592 24.1558 -9.4891663 5984062
64.770523 24.205803 -9.519165 10656400
-13.329468 24.345802 -9.4891663 5461323
-12.859467 24.305809 -9.519165 7564640
-13.569458 24.375801 -9.4391479 5461834
63.880539 24.435799 -9.4891663 10460573
-14.549469 24.565804 -9.4991455 3882555
63.020523 24.675804 -9.5091553 10920345
-0.75946045 25.145805 -9.5091553 6508868
12.760529 25.52581 -9.4791565 8744543
14.220535 25.495811 -9.5091553 9073767
58.450546 25.645805 -9.4991455 11249832
4.5705414 25.855812 -9.4691467 6442818
57.400528 25.855812 -9.4991455 11577503
54.290543 26.395805 -9.4291382 11314846
21.640533 26.455803 -9.4991455 12566192
22.280533 26.565804 -9.4391479 11711655
52.740524 26.645805 -9.4391479 11971237
27.070541 27.295799 -9.4991455 10725537
27.73053 27.355812 -9.5091553 10659478
28.360535 27.4058 -9.4991455 11118749
29.36055 27.485802 -9.4791565 11249568
29.820541 27.52581 -9.519165 10922401
31.080521 27.605812 -9.4691467 11184806
41.510544 27.805809 -9.519165 10526102
40.470535 27.885811 -9.4391479 10197135
44.390549 -27.994194 -9.3291626 3023648
49.370529 -27.264191 -9.3291626 2959383
54.710526 -26.774193 -9.3391418 3418142
57.380539 -26.364197 -9.4191589 3024150
61.950546 -25.214195 -9.3291626 3549730
64.36055 -24.604195 -9.4191589 3680793
65.400528 -24.324196 -9.3991394 3416600
68.35054 -23.544197 -9.3891602 2893083
72.300522 -22.474197 -9.3291626 2827547
75.040543 -21.754196 -9.3591614 2891535
80.520523 -19.974197 -9.3691406 1578774
81.450546 -19.58419 -9.3791504 2039061
82.080521 -19.284195 -9.3491516 2432277
84.540543 -18.224197 -9.3691406 2630421
87.820541 -16.964195 -9.3291626 3681055
89.020523 -16.58419 -9.3791504 3419172
90.10054 -16.144196 -9.3791504 3548688
91.130539 -15.614197 -9.3991394 4866618
91.630539 -15.324196 -9.4191589 3354650
94.35054 -13.724197 -9.3591614 4930092
95.800522 -12.744194 -9.3491516 4469536
96.86055 -11.804192 -9.3791504 4797732
98.300522 -9.3941956 -9.3291626 4799526
99.11055 -8.7941971 -9.3491516 5915449
102.10054 -7.3641968 -9.3691406 6835763
102.81053 -6.9541931 -9.3991394 6639415
104.55052 -5.3641968 -9.3991394 6310192
105.07054 -4.7741928 -9.3491516 5784628
106.27052 -3.994194 -9.3791504 5655611
106.72054 -3.8441925 -9.4091492 5524539
107.68053 -3.1641922 -9.3891602 8612956
108.40053 -2.6741943 -9.3791504 7957089
108.92055 -2.1741943 -9.3291626 8551798
109.59053 -2.0841904 -9.4191589 11509652
111.05052 -0.60419464 -9.3491516 12299676
111.95055 0.76580811 -9.3491516 10657412
112.28053 1.1358032 -9.3991394 10192245
112.44054 1.3158035 -9.4191589 10717556
112.24052 1.5258026 -9.3291626 10587510
112.44054 1.9558029 -9.3391418 10784634
112.73055 2.9358063 -9.3291626 10781554
113.16054 4.9258041 -9.3991394 10258553
113.06053 5.5358047 -9.4091492 10719876
112.72054 6.4858093 -9.4191589 11312261
112.16054 6.9158096 -9.3391418 12953754
111.64055 7.9658051 -9.3791504 12822941
110.78053 8.9358063 -9.3491516 10919048
109.90053 10.025803 -9.4191589 9733490
109.17055 10.66581 -9.3891602 8811624
106.68053 12.515808 -9.3391418 9009776
101.75053 14.2658 -9.3691406 9077615
99.35054 14.795799 -9.3591614 10064002
97.500534 15.005806 -9.3591614 9207673
87.10054 18.02581 -9.3391418 10263186
85.800522 18.385811 -9.3291626 10590614
83.34053 19.035805 -9.4191589 10524558
80.230545 19.675804 -9.3791504 9667705
79.11055 19.985802 -9.3791504 9272685
77.940536 20.305809 -9.3691406 8418917
76.740524 20.605812 -9.3591614 8877941
71.660538 22.085808 -9.4191589 9735306
-9.7894592 24.02581 -9.3891602 7493448
-9.5094604 24.005806 -9.4091492 6708808
-8.3394623 23.995811 -9.3891602 6444619
-13.079468 24.315804 -9.4091492 7105117
-11.849472 24.285805 -9.3391418 7892838
-11.40947 24.285805 -9.3991394 8284769
-4.1994629 24.27581 -9.3291626 5917502
-13.819458 24.41581 -9.3791504 5393734
-3.5894623 24.41581 -9.3391418 5918013
-14.079468 24.465813 -9.4091492 4734511
-14.779465 24.565804 -9.3991394 3882811
-3.0194702 24.565804 -9.3591614 6377539
-2.1094666 24.805809 -9.3991394 6638654
61.420547 24.965813 -9.3591614 11379870
-1.1394653 25.075813 -9.3691406 6311489
60.800522 25.085808 -9.3591614 10922394
60.180527 25.215813 -9.3791504 11445654
13.180542 25.455803 -9.3291626 8876897
15.310532 25.455803 -9.3891602 9604219
1.4905396 25.555809 -9.3891602 6770236
4.1105347 25.855812 -9.4191589 6246212
5.0505371 25.855812 -9.3791504 6640191
6.0505371 25.855812 -9.3391418 6772040
55.570541 26.145805 -9.3991394 11249566
19.960541 26.1558 -9.3291626 11054749
20.59053 26.2658 -9.3391418 12237226
21.99054 26.505806 -9.3391418 11910060
51.050522 26.865807 -9.3891602 11380381
49.400528 27.005806 -9.3391418 10660513
48.670547 27.085808 -9.3691406 11250592
30.030533 27.5158 -9.3791504 10923425
44.280533 27.535805 -9.3991394 10659491
39.960526 27.925804 -9.3791504 10526865
44.490524 -27.944191 -9.3191528 3023648
44.60054 -27.904198 -9.2491455 3154723
44.820541 -27.844193 -9.2991638 3220771
45.09053 -27.774193 -9.2491455 3416863
47.530533 -27.494194 -9.269165 3286042
50.980545 -27.074196 -9.2591553 3155997
55.830521 -26.614197 -9.2591553 3221281
56.280533 -26.544197 -9.2791443 3352345
56.750534 -26.464195 -9.3091431 3350808
63.020523 -24.914192 -9.2991638 3352601
70.080521 -23.054192 -9.3191528 3221283
71.010544 -22.814194 -9.3191528 2892059
78.720535 -20.574196 -9.2891541 2102290
79.410538 -20.314194 -9.2591553 1775903
83.010544 -18.844193 -9.3191528 3022871
85.950546 -17.604195 -9.2491455 2697002
88.410538 -16.734192 -9.2991638 3615527
92.520523 -14.744194 -9.2991638 3615268
94.970535 -13.214195 -9.2791443 4142371
98.050522 -9.5541916 -9.2391663 4536106
98.740524 -8.994194 -9.3191528 5127477
100.19054 -8.1641922 -9.269165 7624764
100.99052 -7.7941971 -9.2791443 7821631
103.26054 -6.3641968 -9.3091431 6575162
103.61055 -5.8241959 -9.2391663 7034690
105.38054 -4.2241974 -9.2391663 5391412
105.84053 -4.0941925 -9.3191528 5523258
106.86055 -3.2341919 -9.2291565 6114374
109.28053 -1.6541977 -9.2391663 9800320
110.00053 -1.4141922 -9.3091431 10655886
110.57054 -0.90419769 -9.2991638 11773080
111.17055 -0.12419128 -9.2791443 12103066
111.53053 0.28580475 -9.3091431 12102035
112.55052 2.5458069 -9.3091431 10519666
112.76054 3.3758087 -9.2991638 10520439
112.75053 3.9258041 -9.2591553 9601140
112.36055 5.7458038 -9.2291565 11704966
111.67055 7.4258041 -9.2991638 13021080
111.15053 7.9158096 -9.2391663 12300704
111.01054 8.4158096 -9.2891541 11642254
108.68053 10.895805 -9.269165 9270889
108.39055 11.145805 -9.2391663 9270896
108.16054 11.465805 -9.2791443 9011314
105.61055 12.855812 -9.2591553 8681584
104.21053 13.485802 -9.2991638 8550511
103.71053 13.595802 -9.2291565 8550253
103.23055 13.77581 -9.2591553 9273461
102.74052 13.865807 -9.2391663 9208436
101.25053 14.335808 -9.2991638 9404528
100.70055 14.425804 -9.2491455 9470324
99.940536 14.555809 -9.2291565 9603195
95.780533 15.225807 -9.2991638 9010031
95.050522 15.445808 -9.2791443 8945267
94.670547 15.675804 -9.3191528 8945267
94.210526 15.9058 -9.2891541 9274239
93.730545 16.115807 -9.2291565 9537406
92.160538 16.785805 -9.269165 10065552
86.420547 18.145805 -9.2591553 10853011
85.010544 18.575813 -9.2791443 10657691
84.10054 18.735802 -9.2291565 10591124
84.550522 18.685799 -9.2891541 10984601
81.190536 19.365807 -9.2791443 9734270
75.580521 20.855812 -9.269165 8814196
70.310532 22.435799 -9.2891541 9866630
-9.1194611 23.925804 -9.2291565 8545107
-8.8594666 23.945808 -9.2791443 8415808
-10.139465 24.02581 -9.269165 6709081
-9.7294617 23.995811 -9.3091431 7493448
-9.6294708 23.965813 -9.2591553 7493448
-9.349472 23.955803 -9.2991638 6970957
-7.3394623 23.985802 -9.269165 6442812
-6.4894714 23.985802 -9.269165 6247234
-10.449463 24.105812 -9.3191528 6970709
-13.369461 24.325813 -9.2891541 6578782
-13.199463 24.315804 -9.2991638 6648158
-12.849472 24.2658 -9.2291565 8223849
-12.579468 24.2658 -9.2591553 8353635
-12.239471 24.27581 -9.2891541 8024936
-14.779465 24.485802 -9.2291565 4145215
-14.589462 24.475807 -9.2491455 4144956
-14.299469 24.465813 -9.2991638 4341303
62.170547 24.735802 -9.2591553 10920347
-0.48947144 25.27581 -9.2591553 6574410
13.700531 25.425804 -9.2791443 8879457
58.940536 25.41581 -9.2591553 11380386
1.1305389 25.555809 -9.3191528 6508606
9.680542 25.6558 -9.3191528 8215887
7.2205353 25.855812 -9.3091431 7035207
56.310532 25.965813 -9.3091431 11315878
54.710526 26.215813 -9.2291565 11446942
53.500534 26.445808 -9.2791443 11380380
22.580536 26.605812 -9.2591553 11120292
51.60054 26.745811 -9.2991638 11183517
49.970535 26.925804 -9.269165 11446429
50.520523 26.885811 -9.2891541 11380891
25.48053 27.115807 -9.3191528 11053216
26.210541 27.175804 -9.2391663 11052965
46.34053 27.285805 -9.2491455 11053216
28.690536 27.4058 -9.2591553 10922145
45.10054 27.41581 -9.2991638 11446182
30.500534 27.52581 -9.2791443 11053474
42.380539 27.6558 -9.2491455 10395289
41.010544 27.77581 -9.2591553 10198161
34.09053 27.855812 -9.2491455 11185050
34.820541 27.91581 -9.2791443 10462877
36.620529 27.965813 -9.3191528 10986905
37.330521 28.005806 -9.2791443 10657686
39.09053 28.005806 -9.3091431 11183256
44.390549 -27.944191 -9.1291504 3023648
49.870529 -27.184196 -9.1691589 3417366
55.160538 -26.694191 -9.1991577 3154973
57.86055 -26.184196 -9.1891479 3154965
69.210526 -23.214195 -9.1591492 3484193
74.130539 -21.934196 -9.2091675 3484199
77.85054 -20.804192 -9.1991577 1972241
86.770523 -17.214195 -9.1691589 3288094
88.780533 -16.474197 -9.1391602 3616290
89.300522 -16.264191 -9.1291504 3549717
90.530533 -15.754196 -9.1791382 3221802
91.85054 -14.924194 -9.1391602 3354157
93.040543 -14.344193 -9.1991577 4731951
93.540543 -14.004196 -9.1691589 4864819
95.35054 -12.874191 -9.2091675 4208172
96.420547 -11.954193 -9.1691589 4732456
96.870529 -11.354195 -9.1291504 3812886
97.640549 -10.214195 -9.1991577 4140320
97.780533 -9.7941971 -9.1391602 4535083
98.330521 -9.0241928 -9.1391602 4142631
99.410538 -8.4641953 -9.2091675 6639678
100.52052 -7.8541946 -9.1491394 7362875
101.42055 -7.3941956 -9.1491394 6903105
103.82054 -5.3041916 -9.1491394 6574646
104.47054 -4.8741913 -9.2191467 6180148
104.90053 -4.3741913 -9.1691589 5719605
105.96053 -3.7041931 -9.1791382 5721406
106.30052 -3.5141907 -9.1891479 5786686
107.21053 -2.5841904 -9.1291504 6970188
107.82054 -2.444191 -9.2191467 7760476
108.34053 -2.1441956 -9.2191467 8090213
108.71053 -1.7841949 -9.1891479 8026477
109.47054 -1.0941925 -9.1291504 9341823
110.10054 -0.70419312 -9.1491394 9932930
110.68053 -0.32419586 -9.1991577 10720649
111.39055 0.87580872 -9.1691589 10523010
111.80052 1.3658066 -9.2091675 10717824
111.95055 1.9358063 -9.1791382 10850167
112.09053 2.5158081 -9.1591492 10718333
112.33052 3.055809 -9.1891479 9928819
112.63054 4.4758072 -9.2191467 9337191
112.46053 5.0458069 -9.1891479 10521201
111.95055 6.3358078 -9.1991577 12036494
111.58052 6.8858032 -9.1991577 12496536
111.19054 7.4158096 -9.1791382 12890269
110.58052 8.2758026 -9.1291504 11901319
110.29054 8.7458038 -9.1391602 10654085
109.86055 9.3358078 -9.1591492 9931895
108.51054 10.785805 -9.1491394 9402476
108.45055 10.965805 -9.1891479 9270896
107.62053 11.745804 -9.1891479 9207927
107.16054 11.975807 -9.1291504 8945521
102.28053 13.865807 -9.1391602 9011310
98.580521 14.675804 -9.1591492 9931389
98.000534 14.7658 -9.1791382 9010544
96.510544 14.985802 -9.1891479 8289392
95.34053 15.285805 -9.2091675 8880239
93.250534 16.285805 -9.1591492 9472643
90.09053 17.235802 -9.2091675 10657946
89.280533 17.395805 -9.1991577 10855069
85.430527 18.395805 -9.1991577 10395543
83.720535 18.77581 -9.1891479 10328978
82.890549 18.91581 -9.1591492 10458507
82.020523 19.075813 -9.1291504 9800320
79.830521 19.625801 -9.1491394 9273965
79.460526 19.715813 -9.1391602 9403756
78.490524 20.02581 -9.1791382 9534054
71.240524 22.02581 -9.1391602 9734024
70.780533 22.185799 -9.1591492 9866113
68.970535 22.77581 -9.1991577 9802123
66.880539 23.365807 -9.1991577 9999751
65.830521 23.66581 -9.1691589 10000016
64.960526 23.895805 -9.1291504 10657171
-9.9494629 23.975807 -9.2191467 8279379
-9.8294678 23.965813 -9.1991577 8279379
-11.64946 24.225807 -9.1391602 7367779
64.060532 24.16581 -9.1491394 10525840
-13.51947 24.315804 -9.1391602 6514776
-13.039459 24.285805 -9.2091675 8223849
63.120529 24.425804 -9.1291504 10920085
-2.4694672 24.77581 -9.1591492 6377279
-1.5794678 24.995811 -9.2091675 6507838
59.720535 25.16581 -9.1291504 11184031
-0.1594696 25.385811 -9.1691589 6443591
12.110535 25.445808 -9.1291504 8351058
14.670532 25.385811 -9.1591492 9208950
0.6905365 25.545799 -9.1491394 6639938
10.940536 25.545799 -9.1691589 8153170
11.530533 25.5158 -9.1691589 8415323
16.370529 25.505806 -9.1391602 10985103
58.200546 25.52581 -9.1691589 11184028
1.9105377 25.645805 -9.1591492 6966840
10.310532 25.585808 -9.1891479 8347723
57.560532 25.635811 -9.1391602 11576480
7.8605347 25.815804 -9.1891479 7428156
56.880539 25.7658 -9.1391602 11316125
19.020538 25.985802 -9.1991577 10593180
24.250534 26.925804 -9.1491394 10988955
47.050522 27.195808 -9.2191467 11315108
27.180542 27.2658 -9.1791382 10921892
29.330521 27.435799 -9.1691589 11184796
35.510544 27.935799 -9.1691589 10987426
36.140549 27.945808 -9.1591492 11380380
37.040543 -28.494194 -9.0691528 3155489
41.550522 -28.494194 -9.0691528 3156257
43.237198 -28.494194 -9.0624695 3092256
37.130539 -28.444191 -9.0691528 3155489
37.220535 -28.394196 -9.0691528 3285792
37.470535 -28.354195 -9.0691528 3286303
41.390549 -28.384193 -9.0691528 3221280
37.720535 -28.314194 -9.0691528 3220507
38.220535 -28.294197 -9.0691528 3155480
38.720535 -28.314194 -9.0691528 3418136
40.720535 -28.284195 -9.0691528 3286561
40.960526 -28.254196 -9.0691528 3286556
41.200546 -28.264191 -9.0491638 3351831
43.490524 -28.304192 -9.0591431 2762783
43.730545 -28.104195 -9.0491638 2892574
43.940536 -28.044197 -9.0691528 2892322
44.160538 -27.994194 -9.0691528 2892320
44.205521 -27.994194 -9.0841675 2957853
44.520523 -27.904198 -9.0491638 3023648
44.680527 -27.864197 -9.1091614 2958112
44.86055 -27.804192 -9.0391541 3154720
45.520523 -27.704193 -9.1191406 0
45.720535 -27.674194 -9.0691528 0
46.220535 -27.654198 -9.0691528 2761755
46.720535 -27.614197 -9.0691528 3547674
47.220535 -27.554192 -9.0691528 3024154
48.710526 -27.374191 -9.0691528 3417626
51.430527 -27.044197 -9.0491638 3221029
52.420547 -26.984192 -9.0791626 3220507
53.780533 -26.844193 -9.1091614 3416599
56.830521 -26.384193 -9.0791626 3285783
59.040543 -25.844193 -9.0291443 3286301
73.240524 -22.094193 -9.0591431 3615263
75.560532 -21.434196 -9.0591431 2367502
76.740524 -21.074196 -9.0691528 1841938
80.060532 -19.944191 -9.0291443 2235157
81.120529 -19.554192 -9.0791626 1580570
83.810532 -18.33419 -9.0391541 2499102
85.160538 -17.83419 -9.0991516 3090210
88.450546 -16.494194 -9.0291443 3943974
91.300522 -15.174194 -9.0891418 3424554
95.910538 -12.244194 -9.0491638 4076311
96.620529 -11.554192 -9.0591431 4077859
97.080521 -11.024193 -9.1191406 3681300
97.290543 -10.484192 -9.0291443 3813155
98.730545 -8.6241913 -9.0691528 6047288
99.710526 -8.0941925 -9.0391541 7231816
101.93053 -7.0141907 -9.1191406 6639165
102.41054 -6.5941925 -9.0991516 7492928
102.78053 -6.1441956 -9.0591431 7755323
103.98055 -4.7641907 -9.0291443 6311731
104.47054 -4.4041977 -9.0591431 6047287
105.14055 -3.8541946 -9.0391541 5719857
105.58052 -3.7241974 -9.0891418 5457974
107.95055 -1.9641953 -9.1091614 7629672
108.31053 -1.7141953 -9.1091614 8286309
108.59053 -1.5741959 -9.1091614 8025449
108.91054 -1.4041977 -9.1091614 8681324
108.50053 -1.3241959 -9.0291443 8417887
110.18053 -0.044197083 -9.0391541 11309440
110.88054 0.3358078 -9.1191406 11051655
111.27052 1.4858093 -9.0391541 10129026
111.56053 1.8558044 -9.0691528 10719351
111.62053 2.3958054 -9.0291443 10589309
112.25053 3.6158066 -9.1191406 9404019
112.26054 4.1058044 -9.1091614 9536112
111.98055 4.5258026 -9.0391541 10652538
111.50053 5.7658081 -9.0291443 12364939
111.30052 6.3758087 -9.0691528 12362385
111.08052 6.9358063 -9.0891418 12233359
110.79054 7.3658066 -9.0691528 12297612
110.75053 7.8158035 -9.1191406 12232082
109.02052 9.9558029 -9.0491638 8745827
108.68053 10.535805 -9.1191406 9206374
108.33052 10.865807 -9.0891418 9731951
108.25053 11.015808 -9.1191406 9403767
107.99052 11.125809 -9.0391541 9535094
106.69054 12.175804 -9.0891418 8551276
105.89055 12.495804 -9.0791626 8681324
104.34053 13.205803 -9.1091614 8811882
98.950546 14.495811 -9.0291443 9997451
95.450546 15.085808 -9.0291443 8880242
92.660538 16.475807 -9.0991516 9867654
91.670547 16.745811 -9.0391541 10327185
91.050522 16.925804 -9.0691528 10657428
88.660538 17.465813 -9.1091614 10461085
87.960526 17.625801 -9.0891418 10526614
87.390549 17.7658 -9.0891418 10459030
82.440536 18.955803 -9.0891418 9539463
81.550522 19.1558 -9.0991516 9667966
80.580521 19.375801 -9.0791626 9536373
77.220535 20.295799 -9.0791626 9270370
74.490524 21.005806 -9.0491638 9009519
-9.8394623 23.935799 -9.0991516 10183768
-9.6994629 23.9058 -9.0491638 8610375
-10.939468 24.045799 -9.0291443 6511960
-10.499466 23.985802 -9.0591431 7364941
-10.239471 23.955803 -9.0591431 7433301
-7.6994629 23.975807 -9.0891418 6312514
-6.9694672 23.965813 -9.0691528 6639166
-5.9394684 24.005806 -9.0891418 6115654
-5.3394623 24.075813 -9.0791626 6048838
-12.939468 24.245811 -9.0291443 7960693
-11.979462 24.215813 -9.0591431 7694701
-11.329468 24.16581 -9.1091614 7037272
-14.309464 24.345802 -9.0291443 4734782
-13.199463 24.285805 -9.1191406 7828841
-14.779465 24.4058 -9.0591431 4145215
-13.929459 24.355812 -9.1191406 6380114
60.440536 24.955803 -9.0291443 11380122
12.680542 25.385811 -9.0591431 8876899
15.750534 25.395805 -9.0291443 10723219
8.450531 25.745811 -9.0391541 7756625
17.48053 25.685799 -9.1091614 10920848
5.450531 25.835808 -9.0991516 7360572
6.5305328 25.845802 -9.0291443 7427915
18.320541 25.845802 -9.0691528 11184282
19.620529 26.085808 -9.0391541 10658969
53.960526 26.2658 -9.0691528 11446689
21.280533 26.365807 -9.0691528 12237490
22.190536 26.5158 -9.0591431 11580331
23.48053 26.77581 -9.0491638 11645096
50.85054 26.7658 -9.1191406 11380126
49.060532 26.895805 -9.0291443 10987941
47.820541 27.045799 -9.0391541 11577758
27.760529 27.295799 -9.0691528 10725535
45.700546 27.285805 -9.0991516 11315108
29.870529 27.445808 -9.0291443 11381667
31.570541 27.575813 -9.0891418 11447193
32.150528 27.635811 -9.0991516 11447971
33.290543 27.745811 -9.0391541 11185055
40.220535 27.805809 -9.0391541 10460816
40.630539 27.755806 -9.0391541 10328719
36.980545 27.925804 -9.0291443 10724498
39.530533 27.9058 -9.0991516 10855064
37.730545 27.965813 -9.0391541 10658969
38.280533 27.995811 -9.0991516 10921367
38.640549 27.995811 -9.0891418 11249052
41.640549 -28.494194 -9.019165 3156257
41.720535 -28.494194 -8.9591675 3156257
42.970535 -28.494194 -8.9491577 3418651
41.550522 -28.394196 -8.9791565 3156257
43.290543 -28.384193 -9.019165 2697247
43.170547 -28.33419 -8.9291382 2697247
43.380539 -28.214195 -8.9391479 2762783
43.960526 -27.984192 -8.9291382 2892322
44.160538 -27.964195 -8.9491577 2892320
44.34053 -27.934196 -8.9891663 2957853
44.640549 -27.854195 -8.9391479 2696220
47.240524 -27.554192 -8.9691467 3024154
49.34053 -27.284195 -8.9591675 2959383
50.370529 -27.114197 -8.9491577 3023895
51.910538 -27.014191 -8.9991455 3089690
52.830521 -26.924194 -8.9491577 3089169
55.250534 -26.654198 -8.9991455 3154973
55.660538 -26.594193 -9.019165 3221023
56.11055 -26.504196 -8.9991455 3023642
60.570541 -25.444191 -8.9991455 2498070
65.980545 -23.994194 -9.019165 3220498
70.120529 -22.874191 -8.9691467 3549725
71.36055 -22.534195 -8.9591675 3088675
74.550522 -21.684196 -8.9691467 2499865
78.930527 -20.294197 -8.9391479 1970448
85.700546 -17.514191 -8.9291382 3089947
87.34053 -16.804192 -8.9291382 3550994
88.010544 -16.614197 -8.9891663 3812897
88.750534 -16.324196 -8.9691467 3878177
90.85054 -15.384193 -9.019165 3617069
95.410538 -12.474197 -8.9391479 4469528
97.980545 -9.0841904 -8.9591675 4667181
98.940536 -8.3941956 -8.9891663 6376754
100.14055 -7.7341919 -8.9391479 7297083
100.74052 -7.494194 -8.9791565 7166019
102.97054 -5.6441956 -8.9791565 7427648
104.54054 -3.9741974 -8.9391479 5783858
104.78053 -4.0441971 -9.019165 5719604
105.83052 -3.3041916 -8.9891663 6181453
106.26054 -2.944191 -8.9891663 6378326
106.68053 -2.6141968 -8.9991455 6115131
107.50053 -1.9741974 -9.019165 6968652
107.95055 -1.4241943 -8.9691467 7431767
108.94054 -0.9141922 -8.9991455 8747368
109.53053 -0.46419525 -8.9991455 9603698
110.26054 0.62580872 -8.9291382 10390401
110.83052 1.0458069 -8.9891663 9735546
111.21053 2.0958023 -8.9391479 11112824
111.76054 3.1458054 -9.0091553 9863531
111.74052 3.9258041 -8.9791565 9600622
111.71053 5.1258087 -9.0091553 11770244
110.77052 6.5158081 -8.9791565 12296835
110.72054 6.9758072 -9.019165 12232075
110.51054 7.2058029 -8.9891663 12100754
110.42055 7.5858078 -9.0091553 11576470
110.26054 8.0358047 -9.0091553 11903636
109.98055 8.4558029 -8.9791565 12438428
109.55052 8.8658066 -8.9291382 9866619
108.32054 10.635803 -8.9891663 9862503
108.06053 10.845802 -8.9591675 9928818
104.70055 12.865807 -8.9691467 8812140
102.71053 13.575813 -8.9491577 9273969
101.73055 13.835808 -8.9891663 9141614
101.24052 13.985802 -8.9991455 8879728
100.77052 14.085808 -8.9791565 9534838
100.20055 14.185799 -8.9391479 8947067
95.820541 14.875801 -8.9291382 8813682
95.10054 15.1558 -8.9691467 8552563
86.750534 17.845802 -8.9591675 10460306
85.940536 18.085808 -8.9691467 10788248
85.35054 18.2658 -8.9891663 10396053
80.09053 19.455803 -8.9991455 9208174
72.570541 21.485802 -8.9591675 9077369
69.59053 22.395805 -8.9291382 9800839
67.890549 22.885811 -8.9291382 9932940
-10.089462 23.925804 -9.019165 9009512
-9.4294586 23.875801 -8.9891663 7168082
-9.099472 23.875801 -8.9591675 7758430
-8.6894684 23.895805 -8.9791565 6443583
-12.65947 24.225807 -8.9891663 8024173
-12.339462 24.215813 -8.9991455 7693918
-4.8094635 24.16581 -8.9891663 6310976
61.280533 24.755806 -8.9691467 11118493
-0.75946045 25.2658 -9.019165 6639421
13.23053 25.345802 -9.019165 9139812
14.110535 25.335808 -9.019165 9404270
16.910538 25.565804 -8.9691467 11182999
1.5705414 25.66581 -8.9591675 6967352
3.180542 25.825813 -8.9391479 7032381
56.270523 25.77581 -8.9391479 11381919
3.7405396 25.875801 -8.9991455 6705211
4.180542 25.885811 -9.0091553 6442816
4.6005402 25.875801 -8.9891663 6771009
21.790543 26.445808 -8.9891663 11647148
52.550522 26.445808 -8.9691467 11117726
51.790543 26.545799 -8.9491577 11380381
49.560532 26.805809 -8.9391479 11380896
44.470535 27.335808 -8.9291382 10791583
45.11055 27.2658 -8.9291382 11315353
30.990524 27.505806 -8.9791565 11382181
32.650528 27.675804 -8.9791565 11447974
39.85054 27.825813 -8.9491577 10724246
36.880539 -28.494194 -8.8591614 3024414
41.970535 -28.504196 -8.8891602 3090979
42.220535 -28.494194 -8.8391418 3287076
42.470535 -28.504196 -8.8391418 3482651
42.720535 -28.494194 -8.8691406 3681302
36.970535 -28.444191 -8.8491516 3024414
41.470535 -28.284195 -8.9091492 3352344
41.700546 -28.33419 -8.8491516 3352857
43.410538 -28.074196 -8.8391418 2958617
43.680527 -28.004196 -8.8691406 2892574
44.470535 -27.894196 -8.9191589 2696220
45.170547 -27.754196 -8.8891602 3416863
46.710526 -27.624191 -8.8491516 3547674
47.86055 -27.484192 -8.9191589 3286038
54.070541 -26.774193 -8.8691406 3350292
61.770523 -25.074196 -8.8491516 3483680
64.530533 -24.314194 -8.8391418 3876129
67.180527 -23.58419 -8.8491516 3024416
68.270523 -23.304192 -8.8691406 3352607
72.380539 -22.194191 -8.8391418 2892566
73.86055 -21.814194 -8.8591614 3879202
78.150528 -20.484192 -8.8391418 1381905
81.700546 -19.194191 -8.8891602 2103575
86.220535 -17.254196 -8.8891602 2631200
89.85054 -15.814194 -8.9091492 4604471
90.410538 -15.464195 -8.8491516 4209976
92.260544 -14.364197 -8.8391418 3154969
92.970535 -13.944191 -8.8391418 4865328
93.620529 -13.574196 -8.8991394 4341795
94.260544 -13.094193 -8.8391418 4601115
94.910538 -12.744194 -8.8891602 3944475
96.810532 -10.954193 -8.8791504 3813409
97.670547 -9.2841949 -8.8391418 4273967
98.370529 -8.5741959 -8.8691406 5194812
98.60054 -8.3841934 -8.8391418 5917241
99.190536 -8.0741959 -8.8391418 6705469
101.13054 -7.1041946 -8.8991394 6968902
101.60054 -6.7241974 -8.8791504 7099977
102.03053 -6.3441925 -8.8891602 8676174
102.37053 -6.0141907 -8.8891602 9069636
103.33052 -5.0741959 -8.9191589 6638135
104.15053 -4.1741943 -8.8891602 5653554
104.85054 -3.6141968 -8.8791504 5850668
105.32054 -3.3341904 -8.8791504 6049074
106.88054 -1.944191 -8.8591614 6115136
107.38054 -1.3441925 -8.8291626 5985358
108.40053 -0.8441925 -8.9091492 8352368
108.86055 -0.26419067 -8.8591614 9205612
109.53053 0.27580261 -8.8591614 10851199
110.32054 1.2758026 -8.8491516 9995382
110.80052 1.6858063 -8.8891602 10323574
111.20055 2.7658081 -8.8891602 10127732
111.10054 3.5658035 -8.8391418 10258543
111.17055 4.4558029 -8.8591614 11047038
110.92055 5.2258072 -8.8591614 16696781
110.82054 5.8958054 -8.9091492 13618574
110.40053 6.7658081 -8.9191589 13828047
110.17055 7.1758041 -8.8991394 11903635
110.00053 7.6458054 -8.8891602 11114632
109.75053 8.0658035 -8.8591614 14398106
108.33052 10.225807 -8.8491516 9797479
107.55052 11.295807 -8.9091492 8878456
106.07054 12.215805 -8.9191589 8550506
103.62053 13.245811 -8.8891602 8680810
102.40053 13.615807 -8.9191589 9208685
99.390549 14.205803 -8.8391418 9865854
98.010544 14.465813 -8.8891602 9404788
97.09053 14.585808 -8.8891602 8550760
94.690536 15.27581 -8.9091492 8945527
94.230545 15.475807 -8.8491516 9208698
92.010544 16.485802 -8.8491516 10196112
85.000534 18.27581 -8.8991394 10789782
83.470535 18.615807 -8.9091492 9934989
82.670547 18.725807 -8.8391418 9539192
79.640549 19.485802 -8.8591614 9075560
79.010544 19.675804 -8.8891602 9206629
76.270523 20.395805 -8.8591614 8811880
73.480545 21.185799 -8.8891602 8946556
71.670547 21.705803 -8.8891602 9406590
-10.50946 23.91581 -8.8991394 7364941
-10.379471 23.895805 -8.8891602 7828831
-10.099472 23.855812 -8.8391418 7827812
-8.1894684 23.91581 -8.8391418 6377786
-7.3694611 23.955803 -8.9191589 6771008
-6.5394592 23.965813 -8.8291626 6180932
-11.719467 24.145805 -8.9091492 7037792
-13.529465 24.235802 -8.8391418 7630693
-13.139465 24.235802 -8.8691406 7829365
-12.809464 24.205803 -8.8291626 7630956
-4.3894653 24.27581 -8.8591614 6180158
-3.9094696 24.395805 -8.9091492 6245704
-3.3594666 24.555809 -8.8991394 6770753
-2.819458 24.735802 -8.8391418 6639424
-1.1194611 25.225807 -8.8291626 6704445
13.650528 25.285805 -8.8891602 9141098
58.530533 25.285805 -8.8491516 11381157
-0.38946533 25.385811 -8.8991394 6574410
11.110535 25.445808 -8.8391418 8415318
11.610535 25.385811 -8.8291626 8547934
0.26052856 25.52581 -8.9091492 6640194
2.4705353 25.755806 -8.8591614 7228984
4.9905396 25.855812 -8.9191589 6378304
55.680527 25.875801 -8.9191589 11184542
54.920547 25.965813 -8.8391418 11643557
53.140549 26.285805 -8.8591614 11447199
22.420532 26.545799 -8.8391418 11448233
22.85054 26.635811 -8.9191589 11055525
50.950546 26.605812 -8.8291626 11314848
50.230545 26.715813 -8.8791504 11118753
48.510544 26.875801 -8.8691406 11315867
24.920532 26.985802 -8.8491516 11185058
46.230545 27.145805 -8.8791504 11184280
26.620529 27.175804 -8.9191589 10856866
30.36055 27.435799 -8.8291626 11448229
43.450546 27.425804 -8.8691406 11249567
41.630539 27.615807 -8.8991394 10197908
36.220535 -28.484192 -8.7291565 3352354
37.060532 -28.424194 -8.7591553 3024156
37.35054 -28.384193 -8.7791443 3090462
37.680527 -28.364197 -8.7391663 3155488
40.720535 -28.274193 -8.8191528 3286561
41.940536 -28.33419 -8.7791443 3287587
42.170547 -28.324196 -8.7391663 3418413
42.680527 -28.294197 -8.7491455 3351057
42.940536 -28.314194 -8.8191528 2893854
40.980545 -28.234192 -8.7891541 3286556
41.290543 -28.204193 -8.7891541 3351831
43.160538 -28.164192 -8.8091431 3024669
43.810532 -27.964195 -8.769165 2957854
44.040543 -27.944191 -8.8091431 2957851
44.300522 -27.914192 -8.8191528 2826264
44.520523 -27.864197 -8.7991638 2696220
44.770523 -27.804192 -8.7391663 2958112
46.070541 -27.674194 -8.8191528 0
54.500534 -26.704193 -8.7491455 3417879
54.990524 -26.634193 -8.7491455 3286301
55.410538 -26.574196 -8.7591553 3286300
56.200546 -26.404198 -8.7391663 3023642
56.940536 -26.244194 -8.7591553 3220760
57.86055 -26.024193 -8.7391663 3679511
63.010544 -24.704193 -8.7791443 3483408
69.040543 -23.054192 -8.769165 3551273
79.470535 -19.974197 -8.7291565 1775888
82.380539 -18.83419 -8.7991638 2106150
88.34053 -16.324196 -8.8091431 3747364
88.960526 -16.034195 -8.7591553 3879461
90.690536 -15.184196 -8.7491455 3419942
91.030533 -14.974197 -8.7591553 3094039
91.520523 -14.674194 -8.7591553 3620903
96.330521 -11.434196 -8.7891541 4142623
96.59053 -11.164192 -8.8191528 3879196
96.870529 -10.544197 -8.7291565 3813148
97.36055 -9.694191 -8.7591553 3879455
101.80052 -6.1041946 -8.7391663 9072218
102.24052 -5.7341919 -8.769165 8544830
102.65053 -5.2841949 -8.769165 6375988
103.60054 -4.4641953 -8.8091431 5719101
104.46053 -3.5941925 -8.769165 5522999
105.68053 -2.7141953 -8.7591553 6309684
106.28053 -2.2841949 -8.7891541 5852480
107.87053 -0.73419189 -8.7991638 6774357
108.32054 -0.38419342 -8.8091431 7826014
108.05052 -0.20419312 -8.7291565 7496276
108.40053 0.0858078 -8.7291565 7956314
109.77052 0.94580841 -8.7891541 9798517
109.86055 1.4658051 -8.7391663 9601645
110.32054 1.8558044 -8.7791443 10259077
110.77052 2.3158035 -8.8191528 10850431
110.68053 2.9658051 -8.769165 9865079
110.21053 5.4458084 -8.7391663 16775669
110.28053 6.1458054 -8.8191528 14604508
109.93053 6.5858078 -8.7791443 14607615
109.73055 7.1358032 -8.7591553 10655371
109.59053 7.6258087 -8.7591553 10852757
109.35054 8.4458084 -8.7791443 11383182
108.97054 9.2858047 -8.8191528 8879219
107.92055 10.505806 -8.7591553 9864317
107.59053 10.835808 -8.7391663 8420210
107.01054 11.465805 -8.7791443 8812634
106.59053 11.755806 -8.7991638 8747623
106.12053 11.905807 -8.7491455 8681324
102.95055 13.365807 -8.8091431 9010290
102.01054 13.52581 -8.7791443 9338985
100.79054 13.815804 -8.7591553 9272691
100.41054 13.895805 -8.7391663 9339769
96.260544 14.635811 -8.7891541 8813421
95.35054 14.845802 -8.7391663 8748657
93.740524 15.695808 -8.7991638 9078395
93.260544 15.895805 -8.7391663 9209471
92.85054 16.095802 -8.7491455 9604234
91.380539 16.565804 -8.7291565 10787476
83.980545 18.395805 -8.769165 10526360
82.250534 18.805809 -8.8091431 9405054
81.710526 18.91581 -8.7891541 9536888
81.010544 19.065804 -8.7791443 9470329
78.380539 19.735802 -8.7391663 9205348
77.750534 19.935799 -8.7791443 8877415
70.190536 22.075813 -8.7391663 9668223
66.10054 23.285805 -8.7391663 10459281
65.370529 23.555809 -8.7991638 10131607
64.830521 23.695808 -8.7591553 10394521
-10.829468 23.91581 -8.8091431 7366738
64.220535 23.885811 -8.7791443 10656660
-11.439468 24.045799 -8.8191528 6578255
-5.7294617 24.02581 -8.7591553 5983809
63.320541 24.125801 -8.7491455 10788508
-13.919464 24.215813 -8.7791443 7235418
-12.50946 24.1558 -8.7291565 7433829
-12.099472 24.1558 -8.7991638 7496546
62.230545 24.385811 -8.7291565 11248796
-2.3794708 24.885811 -8.7291565 6639168
-1.9494629 24.995811 -8.8091431 6900798
59.220535 25.105812 -8.8191528 11511715
13.270538 25.235802 -8.7391663 9270893
57.830521 25.4058 -8.8091431 11380633
10.540543 25.465813 -8.769165 8152403
57.140549 25.52581 -8.7791443 11512736
56.560532 25.615807 -8.7591553 11512485
1.1905365 25.66581 -8.7891541 6902081
6.900528 25.815804 -8.7991638 7558988
7.3705292 25.785805 -8.7591553 7558985
19.370529 26.0158 -8.7891541 10987161
54.150528 26.045799 -8.7391663 11708835
20.220535 26.16581 -8.769165 11251621
27.040543 27.195808 -8.7891541 10988708
41.000534 27.625801 -8.7291565 10133143
34.61055 27.815804 -8.769165 10725022
38.770523 27.895805 -8.7891541 10788766
36.470535 -28.484192 -8.6991577 3352352
36.720535 -28.494194 -8.6591492 3221018
36.790543 -28.454193 -8.6891479 3220507
36.220535 -28.434196 -8.6491394 3352354
38.140549 -28.344193 -8.6991577 3221275
42.420547 -28.304192 -8.7191467 3416607
41.640549 -28.184196 -8.6891479 3352857
41.910538 -28.194191 -8.6491394 3287587
42.11055 -28.204193 -8.6491394 3418413
42.910538 -28.134193 -8.6891479 3220761
43.160538 -28.034195 -8.6791382 3351321
43.390549 -27.994194 -8.6891479 3154972
43.570541 -27.974197 -8.6791382 3154972
43.920547 -27.934196 -8.6791382 2957854
44.120529 -27.904198 -8.6491394 2957851
44.420547 -27.854195 -8.6291504 2826264
45.60054 -27.714195 -8.6991577 3613985
47.210526 -27.58419 -8.6491394 2959131
48.950546 -27.344193 -8.6491394 3417626
49.630539 -27.234192 -8.6391602 2697236
50.85054 -27.064194 -8.7091675 3221015
51.970535 -26.984192 -8.6691589 3089690
55.640549 -26.504196 -8.6791382 3483680
73.220535 -21.864197 -8.6391602 3222814
77.000534 -20.744194 -8.6591492 1972496
80.770523 -19.434196 -8.6391602 2039060
83.09053 -18.454193 -8.6991577 2762535
84.500534 -17.854195 -8.7091675 3352091
86.680527 -16.864197 -8.6591492 3484706
95.460526 -11.974197 -8.6291504 4403740
95.910538 -11.654198 -8.6691589 4732191
97.970535 -8.6341934 -8.6991577 4864561
98.710526 -8.1041946 -8.6791382 6179629
99.580521 -7.694191 -8.7091675 7230776
100.22054 -7.2941971 -8.6991577 6837829
100.77052 -6.8341904 -8.6691589 6903105
101.25053 -6.4341965 -8.6791382 7625535
102.98055 -4.7541962 -8.6891479 5586222
103.90053 -3.7241974 -8.6391602 5455915
104.94054 -3.0141907 -8.6691589 6114628
106.91054 -1.1841965 -8.6591492 6312262
107.35054 -0.73419189 -8.6791382 6509130
107.70055 -0.25419617 -8.6691589 6510415
107.98055 0.19580841 -8.6391602 7430227
108.82054 0.45580292 -8.7191467 8548451
109.20055 0.89580536 -8.7091675 8878441
109.45055 1.2358093 -8.7091675 9271148
109.10054 1.4358063 -8.6291504 9403491
109.47054 1.5758057 -8.6691589 9731691
109.79054 1.9358063 -8.6791382 10061164
110.24052 2.4358063 -8.7091675 10060917
110.07054 3.1058044 -8.6491394 9995632
110.53053 3.4958038 -8.7191467 10654333
110.19054 3.6958084 -8.6591492 10589315
110.55052 4.0158081 -8.7191467 11047543
110.05052 4.0758057 -8.6291504 11047548
110.26054 4.6458054 -8.6891479 11377038
109.61055 5.8358078 -8.6291504 14144203
109.20055 7.9258041 -8.6491394 16121838
108.86055 8.7958069 -8.6691589 10461855
108.24052 9.6358032 -8.6291504 9075305
105.64055 11.925804 -8.6291504 8942434
105.40053 12.105804 -8.6691589 8943206
104.92055 12.325806 -8.6691589 8747114
102.35054 13.375801 -8.6791382 9536625
101.09053 13.635811 -8.6891479 9206637
98.420547 14.16581 -8.6691589 9667704
89.210526 17.045799 -8.6891479 10394775
87.240524 17.495811 -8.6291504 10591641
85.59053 17.945808 -8.6591492 10788506
84.550522 18.235802 -8.7191467 10853786
83.11055 18.485802 -8.6291504 9671044
70.84053 21.825813 -8.6891479 9405823
-10.469467 23.845802 -8.7191467 7828831
-9.9694672 23.795799 -8.6391602 8417394
-11.239471 23.925804 -8.6991577 7234125
-10.709457 23.855812 -8.7091675 7763059
-13.189468 24.145805 -8.6291504 7892839
-12.849472 24.145805 -8.6491394 7828330
-11.849472 24.055809 -8.6691589 6905699
-14.349472 24.195808 -8.7191467 5790545
60.710526 24.705803 -8.6991577 11445403
60.010544 24.835808 -8.6691589 11249309
12.760529 25.205803 -8.6591492 8943464
12.120529 25.27581 -8.6891479 8613985
14.970535 25.255806 -8.6491394 10657932
-0.32946777 25.455803 -8.6291504 6770497
-0.10946655 25.485802 -8.7091675 6639174
9.8405304 25.485802 -8.6291504 8152399
16.610535 25.465813 -8.6391602 11313815
9.0705414 25.615807 -8.7191467 7888460
17.280533 25.595802 -8.6291504 10987162
5.8205414 25.805809 -8.6491394 7034432
19.020538 25.935799 -8.6791382 10921626
53.530533 26.125801 -8.6891479 11511963
51.810532 26.385811 -8.6491394 11446429
22.080536 26.475807 -8.7091675 11645606
49.070541 26.725807 -8.6891479 11315868
25.49054 27.02581 -8.6391602 11250597
46.880539 26.975807 -8.6491394 11314586
45.500534 27.125801 -8.6791382 11511712
28.280533 27.27581 -8.6791382 10791070
29.09053 27.325813 -8.6691589 11185566
31.950546 27.545799 -8.6791382 11513763
32.370529 27.585808 -8.6591492 11906981
33.970535 27.745811 -8.6791382 11119013
40.040543 27.725807 -8.6891479 10330773
40.460526 27.675804 -8.6691589 10329234
35.280533 27.825813 -8.6291504 10724515
39.11055 27.835808 -8.6691589 11117204
36.660538 27.865807 -8.6991577 11052452
37.170547 27.855812 -8.6591492 10856860
34.220535 -28.434196 -8.5691528 3614488
36.220535 -28.394196 -8.5691528 3352354
36.370529 -28.444191 -8.6191406 3352354
36.61055 -28.444191 -8.5891418 3483422
36.880539 -28.424194 -8.5791626 2893340
37.160538 -28.404198 -8.5491638 3024156
39.220535 -28.394196 -8.5691528 3287581
39.720535 -28.364197 -8.5691528 3417625
34.730545 -28.254196 -8.5691528 3680022
35.970535 -28.314194 -8.5591431 3483169
38.720535 -28.33419 -8.5691528 3679769
40.220535 -28.314194 -8.5691528 3548953
40.720535 -28.264191 -8.5691528 3221027
34.970535 -28.194191 -8.5691528 3549213
35.220535 -28.164192 -8.5691528 3352862
35.470535 -28.184196 -8.5691528 3614750
35.720535 -28.234192 -8.5591431 3680034
42.320541 -28.164192 -8.5891418 3416607
42.630539 -28.114197 -8.5591431 3350801
43.190536 -27.984192 -8.5291443 3351321
43.380539 -27.974197 -8.5691528 3351579
43.730545 -27.944191 -8.6091614 2958109
43.900528 -27.914192 -8.5291443 2957854
45.170547 -27.754196 -8.5291443 2958364
46.530533 -27.654198 -8.5291443 3155738
48.34053 -27.434196 -8.5991516 3286044
51.330521 -27.014191 -8.5391541 2893595
53.010544 -26.854195 -8.5891418 3155990
58.540543 -25.804192 -8.6091614 3090202
59.380539 -25.574196 -8.5491638 3481625
70.680527 -22.504196 -8.5791626 3417881
71.640549 -22.224197 -8.5491638 3483668
74.220535 -21.524193 -8.5291443 3745556
87.740524 -16.314194 -8.5691528 3222045
88.320541 -16.034195 -8.5291443 3684141
90.040543 -15.384193 -8.5891418 4999749
90.410538 -15.134193 -8.5591431 4734258
93.070541 -13.414192 -8.5291443 5191723
93.60054 -13.074196 -8.5391541 4731158
94.990524 -12.234192 -8.5691528 4207134
96.540543 -10.704193 -8.5691528 4140572
97.640549 -8.7841949 -8.5691528 4995633
98.380539 -8.2241974 -8.6191406 5589047
98.950546 -7.7641907 -8.5291443 6508602
101.33052 -6.1241913 -8.6091614 8415835
101.65053 -5.8141937 -8.6191406 9203800
102.01054 -5.4041977 -8.5991516 7296579
102.34053 -4.944191 -8.5491638 5783600
103.25053 -4.1441956 -8.5691528 5521715
104.39055 -3.1541977 -8.5791626 5654836
105.83052 -1.9741974 -8.5391541 6244663
106.34053 -1.5141907 -8.5491638 7165797
106.98055 -0.63419342 -8.5291443 6639686
107.33052 -0.23419189 -8.5691528 6575168
107.63054 0.12580872 -8.5791626 7099988
108.27052 0.67580414 -8.5991516 8022623
108.63054 1.305809 -8.5691528 8942184
109.29054 1.9158096 -8.6091614 9666157
108.85054 1.9958038 -8.5291443 9402727
109.15053 2.3858032 -8.5391541 9470319
109.65053 2.4458084 -8.6191406 9339760
109.42055 2.9758072 -8.5491638 9732979
109.73055 3.6358032 -8.5691528 10849916
109.58052 4.2358093 -8.5491638 10850944
109.56053 4.9758072 -8.5691528 11114111
109.42055 6.555809 -8.6191406 11248265
109.17055 7.2258072 -8.5691528 11179151
107.78053 10.055809 -8.5491638 9404022
107.10054 10.965805 -8.5791626 8746855
106.45055 11.335808 -8.5291443 8878441
103.69054 12.855812 -8.6191406 9010285
101.48055 13.395805 -8.5691528 9077358
99.830521 13.875801 -8.6191406 9667198
95.760544 14.545799 -8.5691528 8813422
94.900528 14.885811 -8.5791626 8879725
92.330521 16.145805 -8.5791626 9867399
90.460526 16.705803 -8.6191406 10789017
88.11055 17.255806 -8.5991516 10722197
86.34053 17.685799 -8.5691528 10656918
80.09053 19.185799 -8.6091614 9141868
75.160538 20.505806 -8.5891418 8156515
68.630539 22.395805 -8.5491638 9406843
66.930527 22.945808 -8.6091614 10064007
65.010544 23.475807 -8.5291443 10132121
-9.5094604 23.785805 -8.6091614 7897724
-11.629471 23.945808 -8.5691528 7168855
-7.069458 23.945808 -8.6191406 6311997
-6.1494598 23.985802 -8.6091614 5983047
-14.779465 24.115807 -8.5591431 5198922
-13.539459 24.125801 -8.5691528 7893873
-12.219467 24.065804 -8.5691528 7037013
-5.3794708 24.095802 -8.5791626 6310720
58.790543 25.065804 -8.5891418 11118755
-1.4294586 25.205803 -8.5291443 6901307
13.430542 25.1558 -8.5591431 9667955
13.800537 25.185799 -8.5991516 10063487
58.160538 25.16581 -8.5291443 11380897
11.280533 25.345802 -8.6191406 8416094
-0.81945801 25.365807 -8.5691528 6966588
-0.54946899 25.425804 -8.5991516 6901051
16.140533 25.385811 -8.6191406 10723474
16.960541 25.5158 -8.5391541 11183002
0.75053406 25.6558 -8.5491638 6968129
1.5905304 25.735802 -8.5491638 7229759
7.900528 25.725807 -8.5891418 7493443
1.950531 25.755806 -8.6191406 7229505
5.1405334 25.835808 -8.5391541 6706237
3.8405304 25.895805 -8.6091614 6967871
4.150528 25.895805 -8.5291443 6639934
52.270523 26.245811 -8.5491638 11773591
49.620529 26.595802 -8.5291443 11577495
47.800522 26.845802 -8.5891418 11380892
29.690536 27.345802 -8.5891418 11316906
31.450546 27.475807 -8.5791626 11579041
32.830521 27.625801 -8.5491638 11251366
38.400528 27.865807 -8.6091614 10659741
36.470535 -28.404198 -8.4791565 3483422
36.700546 -28.414192 -8.4691467 3220507
37.500534 -28.394196 -8.4691467 3090462
38.520523 -28.374191 -8.4291382 3483162
40.930527 -28.234192 -8.4791565 3221022
41.240524 -28.184196 -8.4991455 3286299
41.550522 -28.144196 -8.4791565 3418138
41.870529 -28.114197 -8.4491577 3548440
42.140549 -28.104195 -8.4791565 3484709
42.930527 -28.014191 -8.4791565 3351317
43.520523 -27.954193 -8.519165 3154972
43.690536 -27.934196 -8.4691467 2958109
44.170547 -27.874191 -8.4391479 2957851
46.000534 -27.704193 -8.4991455 3286039
47.670547 -27.534195 -8.4291382 3024669
54.770523 -26.604195 -8.4991455 3483673
55.11055 -26.544197 -8.4991455 3286301
55.680527 -26.424194 -8.4891663 3351583
61.710526 -24.934196 -8.4691467 3877159
65.170547 -23.944191 -8.4391479 3484960
67.680527 -23.224197 -8.4491577 3616035
68.35054 -23.094193 -8.519165 3286814
68.830521 -22.934196 -8.4591675 3484706
69.560532 -22.734192 -8.4591675 3482910
81.440536 -19.074196 -8.4891663 1776917
83.700546 -18.08419 -8.519165 3090205
85.230545 -17.424194 -8.5091553 3485474
85.820541 -17.164192 -8.5091553 2828317
86.220535 -16.914192 -8.4291382 3286818
88.780533 -15.744194 -8.4291382 3815212
89.430527 -15.534195 -8.4791565 3616547
90.720535 -14.824196 -8.4691467 4008988
92.460526 -13.734192 -8.4491577 4141336
94.450546 -12.444191 -8.4491577 4010524
96.020523 -11.204193 -8.4791565 4863001
96.260544 -10.944191 -8.4891663 4271893
96.910538 -9.9341965 -8.5091553 3748132
97.34053 -9.0441971 -8.4691467 4142892
98.050522 -8.2341919 -8.4691467 5127729
99.380539 -7.3641968 -8.4491577 6770492
99.940536 -6.9241943 -8.4491577 7361610
