# .PCD v0.7 - Point Cloud Data file format
VERSION 0.7
FIELDS x y z rgba
SIZE 4 4 4 4
TYPE F F F U
COUNT 1 1 1 1
WIDTH 1204
HEIGHT 1
VIEWPOINT 0 0 0 1 0 0 0
POINTS 1204
DATA ascii
-61.04105 -11.233215 0.91615248 8947330
-61.159592 -11.291641 0.99883413 8684412
-61.019825 -11.334736 0.97041225 8684412
-60.868248 -11.325199 0.89209032 8749692
-60.679874 -11.467698 0.89457035 8224630
-60.40147 -11.583119 0.81666279 8487032
-60.639469 -11.637101 0.91384602 8355185
-60.502079 -11.679473 0.8655901 8355446
43.397102 -6.8709159 -11.475539 11837585
-60.781303 -11.754557 0.9467864 8355185
-60.702599 -11.819669 0.90475655 8420207
-60.611809 -11.774812 0.88037157 8355185
-60.509857 -11.759441 0.8535533 8355446
-60.384468 -11.752365 0.80852032 8355446
-93.276741 -13.416133 4.7580624 3750447
-92.394218 -13.394646 4.6428227 4604989
-60.835766 -11.906707 0.93778276 8551790
-60.651215 -11.916472 0.87495184 8420207
-60.489422 -11.857272 0.8173399 8289650
-60.792175 -12.083481 0.89594316 8354670
42.917694 -7.2637348 -11.422054 11641488
-94.135712 -13.723709 4.7896347 3684411
-94.306053 -13.872498 4.8248982 4013628
-61.028694 -12.285777 0.94728088 8092526
-94.798309 -14.195891 4.8823981 3947835
42.275902 -7.8141432 -11.354753 11705744
-95.529404 -14.329544 4.9552984 4144694
-95.119186 -14.282085 4.9480486 4078640
-94.961716 -14.244748 4.9304891 4144443
41.340649 -8.47824 -11.256351 10654855
-61.654457 -13.3339 0.95439196 9142121
-62.077267 -13.654068 1.0036707 9075297
-62.367966 -13.748861 1.0653882 8943971
40.179111 -9.2949705 -11.085871 9997959
39.310341 -9.4517193 -11.077918 9998477
-62.621773 -14.238718 1.0278225 8352348
-62.790051 -14.437424 1.0610085 8613974
-62.803593 -14.617683 1.0460787 8613974
-62.864399 -14.771378 1.0679841 8808532
-62.655331 -14.738742 0.97350454 8153938
-62.668934 -14.889412 0.96970606 7889740
-62.857685 -14.960688 1.0502653 8151635
37.784233 -10.345432 -10.866444 9997695
-62.822514 -15.089087 1.0414143 7496018
-62.74506 -15.124251 1.0006137 7496018
-62.701172 -15.041361 0.97818708 8151635
-51.519993 -14.56415 -0.2664113 8086348
-51.050678 -14.490635 -0.36039829 8087370
-49.567795 -14.439543 -0.58700132 8548962
-62.779869 -15.18671 1.0227175 7496018
-62.584499 -15.245564 0.94673014 7561551
-46.80003 -14.550747 -0.92330837 10522235
-62.516712 -15.412859 0.94264889 7561298
-47.33276 -14.658873 -0.78260326 9930617
-45.32328 -14.603268 -1.0722666 10588286
36.677891 -10.776618 -10.759217 10457991
-55.383301 -15.130364 0.086306095 7232317
-44.827637 -14.599783 -1.1417055 10721156
-62.491745 -15.604215 0.99321985 7626056
-62.310822 -15.583316 0.91178465 7626056
-44.052021 -14.705771 -1.1882682 10786955
-56.671227 -15.440794 0.23983192 6903360
-43.285255 -14.740099 -1.2815628 11246992
-42.01099 -14.747892 -1.5053883 11115659
-62.335556 -15.717808 0.99051857 7626056
-61.854488 -15.772541 0.8602643 7363654
-61.638218 -15.771643 0.81415462 7102533
-41.704468 -14.835306 -1.5050187 10853260
-41.457245 -14.833379 -1.5447192 11051661
-62.073479 -15.805621 0.95588779 7165500
-59.569904 -15.765783 0.57613182 6969669
-59.192936 -15.748235 0.53150606 7099973
-58.569592 -15.708805 0.44800043 6575421
-57.637993 -15.615835 0.34959221 6771266
-57.18153 -15.667088 0.35340834 6902077
-61.505432 -15.898388 0.86419821 6642238
-61.050652 -15.896383 0.78952408 7362626
-60.458656 -15.848003 0.70001698 6903106
-60.266556 -15.869892 0.69634008 6968900
-58.179707 -15.803574 0.46832943 6771520
-41.148685 -14.941104 -1.5352383 10986383
-60.608093 -15.937047 0.76515865 6903106
-58.980785 -15.871286 0.57215452 7164991
-40.060215 -15.119667 -1.6925335 11642775
-39.566422 -15.184631 -1.8045397 11642001
33.495911 -11.934978 -10.418946 10193796
-38.559128 -15.448633 -1.9148464 12233627
31.558224 -12.576553 -10.179201 9999241
30.326319 -12.731866 -10.087308 9734781
28.01129 -13.200137 -9.8161573 10129797
25.18598 -13.700506 -9.5252218 10590859
24.523264 -13.903049 -9.4126358 10720640
-33.000542 -16.910669 -2.6248291 10855323
-31.981728 -17.184546 -2.7267866 11710892
21.202425 -14.676546 -9.072053 9999235
21.972946 -14.603563 -9.0914059 10195850
-29.323082 -17.708454 -3.1253378 12302249
16.414099 -15.660056 -8.522563 10656913
-27.70834 -17.915411 -3.2762856 12302507
13.762136 -16.124418 -8.2007313 12299174
-25.121054 -18.073786 -3.6228588 12631475
8.5187063 -16.527735 -7.6059198 13418158
-23.393045 -18.16503 -3.7932909 12041395
-22.683836 -18.192852 -3.8592963 12237237
5.8256149 -16.86191 -7.3248668 11840412
7.0842376 -16.786627 -7.3926201 11315619
-20.205351 -18.307119 -4.1710405 11647153
2.9405577 -17.246689 -6.9822693 12168616
4.0312386 -17.126732 -7.088747 11708826
1.3278916 -17.494282 -6.7371111 13222844
-16.491945 -18.411417 -4.6911874 12499115
-15.627092 -18.48366 -4.7371588 12630450
-14.302367 -18.522415 -4.8875141 12236471
-4.31358 -18.09659 -6.0915956 16315364
-11.763855 -18.492603 -5.2315359 12234394
-10.042165 -18.391216 -5.4648209 12958123
-91.686226 17.440357 5.5484605 6118745
-91.129066 17.034954 5.4971876 0
-39.10125 19.316608 -0.65697145 2301471
-37.752537 19.3894 -0.81627417 2761750
-31.509609 19.659199 -1.5358992 3157285
-27.096739 19.845461 -2.0791705 3156767
-45.798668 18.896856 0.08161068 1776657
-43.337837 19.080196 -0.17699385 2367253
-42.892628 19.101336 -0.23977184 2367768
-40.783928 19.148256 -0.46101809 2302499
-50.796993 18.561665 0.73009396 2170658
-46.468777 18.814829 0.17925262 2562834
-20.259449 19.965784 -2.9460981 2564630
-90.32238 16.673656 5.3570781 0
-52.03492 18.454021 0.87483883 2104342
-90.039268 16.586403 5.3299999 0
-16.175228 19.985876 -3.4357264 2696996
-55.134377 18.120518 1.2147927 2434329
-15.255737 19.977022 -3.5061178 2827809
-58.629498 17.797764 1.6227827 2563351
-58.209789 17.868971 1.534637 2300181
-59.409428 17.671438 1.7118673 2628629
-9.7286472 20.013453 -4.1482425 2761235
-8.8658924 20.004427 -4.2722955 2498585
-7.0456967 20.05792 -4.4586668 3815468
-89.182739 16.095745 5.2195649 3220504
-61.408115 17.369583 1.9107151 2301465
-6.1749544 20.010506 -4.6153269 3551522
-5.6903019 19.9547 -4.715848 2958625
-63.785141 17.139307 2.177711 2629911
-65.74791 16.945431 2.4668398 2760473
-65.279732 16.989708 2.3517594 2825753
-64.91037 17.035671 2.339304 2892065
0.62837374 20.048393 -5.4610038 3550501
1.1421585 20.10902 -5.4398603 2893076
2.6835394 20.074469 -5.7168951 3089695
4.0009179 20.14291 -5.8020377 3553333
7.0997024 19.999996 -6.2497849 3750457
8.1890974 19.969038 -6.3413725 4668992
-82.032021 15.640106 4.3043027 2432530
10.271371 19.93471 -6.5623741 3815224
11.73367 19.961948 -6.7167802 4144941
-81.296211 15.60476 4.2045979 2367250
-74.41674 15.864185 3.4081755 2565407
-76.217964 15.650713 3.606647 0
13.739937 19.827778 -7.0229568 3618344
15.894512 19.756384 -7.2439184 4540479
16.40056 19.720757 -7.3261042 4078391
16.9799 19.736483 -7.3648591 4668479
18.23703 19.565784 -7.5420895 4801343
19.404564 19.341728 -7.7306623 5065279
20.584766 19.334173 -7.8121634 4471854
21.170353 19.213472 -7.9371986 3687998
22.147924 19.128946 -8.0576134 4144448
22.90863 19.142292 -8.0980835 5130302
24.152784 18.903034 -8.3266373 5658183
27.835897 18.461878 -8.7242689 6509647
29.329294 18.220507 -8.8920908 6052171
35.024052 16.716446 -9.6602573 5986124
36.070656 16.23753 -9.8636761 7759962
37.345051 15.963067 -9.9358425 8414308
38.052322 15.488768 -10.108412 8480355
42.21315 13.461545 -10.670952 5919819
42.872398 13.201342 -10.739336 6183244
45.741383 11.236488 -11.205029 6708832
46.18795 10.777164 -11.275201 6511696
46.962109 10.20141 -11.348579 6512209
47.210705 9.6932793 -11.406802 6971732
47.840645 9.0007868 -11.467106 7368800
47.994522 8.6478672 -11.498302 7431002
47.993149 8.1189222 -11.54744 7429972
48.339146 7.5336533 -11.579844 8482399
48.093781 6.5744863 -11.64543 7435369
48.10725 5.7749338 -11.67587 7958367
48.514622 5.0504246 -11.670254 7040094
48.324795 4.3022385 -11.694611 9337699
48.407982 3.5551119 -11.711355 7364700
47.864571 3.2234645 -11.7488 8222047
48.251038 2.0182817 -11.76809 7367262
48.015457 1.3292229 -11.815025 7297871
48.277 0.49831688 -11.805824 8812138
48.078377 -0.010631084 -11.810412 9995135
47.702484 -0.97876716 -11.790095 15790061
47.288116 -1.5577705 -11.771307 14276824
46.550816 -2.1893389 -11.77611 14078645
-75.423134 -9.2596712 2.6535449 7763049
-74.9851 -9.2201042 2.6225262 8222061
-73.036263 -9.4069624 2.3213458 8289388
-72.080132 -9.4820671 2.1937571 8484974
-71.669357 -9.5037813 2.1638322 8485746
-82.234268 -10.176479 3.428153 2369821
-82.105782 -10.130909 3.4244576 2565406
-68.094666 -9.8974924 1.7204614 9141362
-67.746132 -9.954175 1.7471285 8879475
-85.606117 -10.833567 3.8092909 2630940
45.342613 -4.9295087 -11.649189 15255470
-86.716148 -11.204498 3.9090433 2696995
-65.313522 -10.357738 1.3598776 9604227
-87.56044 -11.496754 4.0704298 2763560
-64.226341 -10.490059 1.2951355 9539468
-63.872318 -10.511935 1.2115216 9736844
44.347881 -5.6126575 -11.635033 11051412
-62.612865 -10.653767 1.0652862 9801617
-62.394089 -10.712772 1.0167475 10063501
-62.008511 -10.845676 0.9858098 9735304
-61.655117 -10.949669 0.94972038 9144961
-61.389046 -11.048548 0.94444466 9144705
43.732601 -6.1410027 -11.590296 12563613
-61.125019 -11.113796 0.84992647 8947330
-89.364403 -12.557651 4.1681261 3749922
-60.883549 -11.212168 0.80730057 8749692
-60.67107 -11.302298 0.77854156 8749692
-60.411781 -11.379417 0.72445488 8487032
43.261513 -6.5230165 -11.547508 11968914
-60.155506 -11.748405 0.70056105 8420982
-93.652443 -13.47992 4.7101679 3750186
-60.305946 -11.925859 0.72231388 8289650
-60.524776 -12.047726 0.78448486 8289650
-60.645287 -12.312571 0.76926041 8224112
-94.453857 -13.988166 4.8082399 4013628
-94.627831 -14.106291 4.8248701 4210240
-95.297066 -14.224571 4.8303986 4078389
-60.935513 -12.657393 0.821908 8552298
-96.257172 -14.559336 4.9336014 4276023
41.393044 -8.0819941 -11.339057 11575439
-61.194904 -13.139164 0.8255949 8945518
40.506691 -8.5725327 -11.270472 10062975
-61.74749 -13.655827 0.89348936 9010025
-61.323395 -13.59236 0.75412893 8878698
-61.930618 -13.961945 0.84397364 9140324
-62.306137 -14.111519 0.93404531 8550500
38.234119 -9.6677351 -11.057283 9801344
-62.423218 -14.51541 0.89322042 8285526
-62.553528 -14.642747 0.9345088 8285526
-51.595203 -14.249724 -0.43753624 8482652
-62.460693 -14.836815 0.87607574 8153938
-52.3386 -14.396425 -0.30316257 8547419
-50.007324 -14.317495 -0.59029865 8286299
-49.278835 -14.261919 -0.71607971 9273706
-62.510754 -15.01001 0.89598799 7889740
-51.895271 -14.427454 -0.31718636 8546896
-50.467556 -14.370578 -0.49663544 8156510
-48.662773 -14.355335 -0.74300194 9338469
-47.91563 -14.298478 -0.88106441 9667697
-62.629955 -15.137242 0.94603491 7561551
-62.447433 -15.126678 0.8740921 7561551
-62.318295 -15.209452 0.82536983 7627342
-54.233418 -14.846373 -0.051569462 7495496
-46.344059 -14.549109 -0.98805094 10653305
-45.799225 -14.533335 -1.0629826 10589065
-62.338402 -15.483347 0.88846636 7692625
-62.099575 -15.449327 0.79046345 7627088
-56.052647 -15.189482 0.11415768 6969659
-42.889515 -14.58627 -1.4545531 11246734
35.535637 -10.894844 -10.747274 10787990
-62.11314 -15.613306 0.86682463 7560774
-61.924961 -15.653717 0.82259846 7363654
-61.824509 -15.679047 0.80962467 7363654
-61.72747 -15.581619 0.73093128 7561806
-57.0714 -15.366101 0.20995617 7035199
-42.333733 -14.692083 -1.4847736 11246986
-41.949589 -14.692954 -1.5611587 11247495
-41.761467 -14.703792 -1.5942235 11117194
-41.596821 -14.684891 -1.6435437 11117194
-61.736004 -15.684526 0.78874397 7102533
-61.383228 -15.676447 0.70635939 6773828
-60.756596 -15.687292 0.63073492 7559491
-60.311386 -15.666153 0.56795692 7494468
-59.979202 -15.681933 0.55773973 7100740
-58.909855 -15.611729 0.42182732 7231300
-41.333607 -14.743472 -1.6570807 11315091
-61.23262 -15.78194 0.74494219 7101763
-60.578671 -15.76108 0.65709209 7165760
-40.906361 -14.865266 -1.6724753 11445132
-40.456985 -14.943962 -1.7393217 11510673
33.135593 -11.736753 -10.489475 10326147
32.807114 -11.781225 -10.471817 9473919
32.029133 -12.108743 -10.359985 9274755
32.815041 -11.984205 -10.399443 9145215
-37.971252 -15.527161 -2.0890164 11838862
-37.181599 -15.702933 -2.1296911 11313297
-36.369339 -15.875159 -2.2334204 9736835
29.013077 -12.870544 -9.9951057 10261382
28.484348 -13.006012 -9.9163342 10392198
26.911966 -13.156324 -9.8035278 11245708
27.416782 -13.17532 -9.8043537 10260870
26.421734 -13.289586 -9.7393866 10589575
-34.720745 -16.348125 -2.4584885 10392445
23.937534 -13.907002 -9.4230995 10458504
22.724773 -14.1006 -9.3550291 10326404
23.42466 -14.030497 -9.3760319 10065290
-31.362484 -17.272038 -2.8949881 11846321
19.730347 -14.973902 -8.9362679 10262158
-30.190691 -17.444643 -3.1124516 13224121
17.92565 -15.245483 -8.7898531 10459538
17.038261 -15.416814 -8.6894894 10329233
-27.150915 -17.853672 -3.4820645 12499119
14.600907 -15.840352 -8.4121284 11051926
12.6371 -16.122646 -8.1663837 11185313
7.1767354 -16.595661 -7.5580974 11708574
7.7052383 -16.552288 -7.5897522 11247764
-22.169775 -18.072704 -4.0678511 12434611
6.6428552 -16.733019 -7.4384842 11512482
4.9740677 -16.898659 -7.2944794 11643033
-20.672304 -18.173857 -4.2311077 12105397
-19.446714 -18.246838 -4.3808832 12500149
1.9914242 -17.298409 -6.9306479 11972003
-17.156507 -18.277769 -4.7174597 12565937
-14.917418 -18.343569 -4.9886565 12565427
-1.2615185 -17.680307 -6.5437779 13492671
-13.075597 -18.388273 -5.2013092 12759978
-2.9933667 -17.860962 -6.3423643 15527159
-12.329928 -18.393562 -5.2910252 12037286
-11.093003 -18.387646 -5.3989954 11711398
-9.2225742 -18.249729 -5.6387334 13354162
-92.580986 17.794163 5.5376182 0
-92.348732 17.734547 5.5176411 0
-92.073921 17.636486 5.5012894 0
-91.845917 17.525429 5.5102029 0
-91.425156 17.264118 5.4704418 5920069
-35.784733 19.447197 -1.2016139 3022613
-41.672726 19.092653 -0.49739313 2236188
-40.083202 19.195419 -0.65429354 2630950
-28.47995 19.75643 -2.047334 2895658
-26.514519 19.817923 -2.2810869 3486241
-25.752594 19.814625 -2.4029164 2958874
-90.451149 16.773062 5.2451 3685429
-90.269684 16.711494 5.2210932 0
-51.387844 18.53953 0.66921139 1974553
-23.713324 19.858307 -2.6159432 2828827
-21.090378 19.939579 -2.9077485 3025960
-90.129471 16.645105 5.2723908 3556920
-49.839844 18.572001 0.47444057 1318164
-48.138329 18.639555 0.31291294 1711639
-19.173246 19.939222 -3.1480207 3025698
-89.876534 16.566452 5.2492747 0
-54.075035 18.23315 1.0110254 2693405
-89.643791 16.46726 5.2177572 3353124
-57.620266 17.960972 1.3562989 1973006
-56.452461 18.012859 1.2784295 2367768
-14.617126 19.930037 -3.6651263 3090981
-89.474152 16.366371 5.1635189 3417372
-13.66356 19.944424 -3.7790933 3222053
-89.329498 16.262667 5.1525021 3417372
-12.007516 19.923151 -4.0190072 2760469
-11.180515 19.930813 -4.0978446 2629908
-89.218239 16.188238 5.1263728 3089437
-89.134354 16.111719 5.1236315 3220504
-60.884056 17.447294 1.7699537 2496790
-7.7169313 19.943678 -4.5535402 3421742
-6.6923094 19.950954 -4.6662064 3421472
-62.580128 17.236654 2.0063128 2366738
-61.996498 17.303835 1.9386644 2039828
-4.4536362 19.895132 -4.9369946 3026470
-0.4800173 20.05847 -5.3678885 4606519
-67.298042 16.779032 2.5058393 2497563
0.90231633 19.983614 -5.5566955 3418909
1.5514643 20.022179 -5.5929203 3286047
5.1484194 20.020006 -6.0349379 3289893
6.063921 20.022203 -6.1346855 3616815
-83.455307 15.756368 4.4189057 2957582
-68.466156 16.483765 2.6556153 0
-71.62674 16.157824 2.9930925 2696476
9.6096678 19.817604 -6.5778522 3748908
10.720466 19.790535 -6.7424245 4404793
-76.411148 15.613777 3.5781312 2630169
12.968236 19.755146 -7.0135679 4998459
14.430461 19.614824 -7.2345028 3684654
15.170549 19.617619 -7.2829361 3750965
17.697975 19.436863 -7.6332169 5720384
18.752542 19.343445 -7.7027287 5725008
21.577707 19.104053 -8.0303717 4999745
23.211185 18.852499 -8.2960224 4671032
28.343164 18.001995 -8.9630051 5132353
29.967216 17.697102 -9.1588926 5921616
30.931072 17.521095 -9.2608128 5854536
31.83569 17.42111 -9.3226147 6512459
32.559265 17.145958 -9.4496403 5656651
33.394325 16.875179 -9.5697479 6707794
34.127773 16.630085 -9.6867867 7299932
35.425694 16.279999 -9.8451786 6642260
36.504799 15.821362 -10.021502 6581348
38.780533 15.074213 -10.251106 8419699
39.660637 14.705095 -10.370078 13490175
40.311584 14.236937 -10.505429 9934988
40.861958 13.853287 -10.605482 7826788
43.179161 12.79842 -10.861246 5657422
44.569885 11.665775 -11.139603 5723723
46.005867 10.332722 -11.37012 7102813
47.207867 9.1154919 -11.487787 7166806
47.421593 8.7849531 -11.515275 8024164
47.401165 8.4751644 -11.554224 8551267
47.494095 7.6201267 -11.616349 7497560
47.908176 7.1272192 -11.633453 8156515
47.566303 6.8137102 -11.664178 9537638
47.651573 4.7968054 -11.737036 8549480
47.752068 3.9296288 -11.74007 8287845
47.82925 2.6120915 -11.776657 7302486
47.572498 2.1921148 -11.81138 7299143
47.470646 1.7180896 -11.836386 7498077
47.664936 0.77484632 -11.843336 7365991
47.513439 0.3281095 -11.851309 9076852
47.074028 -0.029950142 -11.871928 10260891
47.211121 -0.52616167 -11.845808 15526128
46.6539 -1.3110399 -11.837437 14341584
45.587574 -3.1510866 -11.775744 15922161
-75.753571 -9.3297024 2.5596709 7501156
-81.830902 -10.064379 3.3031535 2762011
-70.729935 -9.5575905 1.9886384 8419435
-82.359566 -10.229435 3.3707323 2369821
-81.982742 -10.139397 3.2682695 2892575
-69.753616 -9.6121607 1.8694544 8550248
-82.80938 -10.337921 3.3603587 2302225
-82.560661 -10.287159 3.3525033 2172699
45.104126 -4.3155146 -11.719387 15000029
-68.443634 -9.8308258 1.6942058 9141875
-85.253548 -10.723418 3.6802301 2565146
-85.956253 -10.977009 3.7756014 2827296
44.586452 -5.0393591 -11.693387 12625297
-65.733887 -10.303574 1.3215985 9603459
-87.46244 -11.49475 3.8773036 2828587
-87.662239 -11.59573 3.9379725 2959910
-63.559608 -10.512014 1.0429521 9737356
-87.892952 -11.727318 3.9810739 3156524
-62.662155 -10.609855 0.92161942 9801617
-88.140671 -11.88682 3.9546852 3090214
-62.435822 -10.680983 0.93217278 10063501
-62.211864 -10.751404 0.92292166 10063501
-61.301071 -10.987827 0.77481508 9800839
-60.951252 -11.090744 0.70893002 9736074
-60.707394 -11.189831 0.68616819 9472388
-60.534229 -11.262204 0.67285776 9013375
-60.083351 -11.502507 0.64029551 8815483
-91.295303 -13.223959 4.2852297 4276541
-93.35968 -13.421738 4.5662713 3947311
-93.086693 -13.407375 4.4936919 4144434
-92.75177 -13.404266 4.5140591 4407608
-91.862579 -13.33204 4.3897614 4342845
-59.999123 -11.967043 0.57311535 8093300
-93.891144 -13.576092 4.6144257 3618864
-60.273289 -12.191505 0.6382618 8420206
-94.319611 -13.84527 4.6360178 3619124
-94.514198 -13.973946 4.6446538 3882295
-95.08567 -14.16307 4.7669144 4078648
-94.918282 -14.125264 4.7481809 3947835
-95.79055 -14.323847 4.7953672 3947575
-96.040306 -14.446739 4.8511572 4144438
-96.505081 -14.616758 4.860507 4406583
-60.560844 -13.092618 0.57983398 9470322
39.597294 -8.8624468 -11.232206 10326140
-61.475098 -13.937019 0.69945097 9271655
-61.897373 -14.326354 0.72605658 8484958
-62.204762 -14.413158 0.82029963 8287325
-62.122616 -14.617315 0.7526679 7893845
-52.915493 -14.248287 -0.34949493 8154966
-52.040558 -14.198376 -0.43259478 8876893
-49.826096 -14.053217 -0.74361038 9010532
-62.271999 -14.735948 0.80664778 7498065
36.597366 -10.181137 -10.949806 10719881
-53.646828 -14.474031 -0.22953749 8021331
-62.252853 -14.984701 0.78529406 7562827
-47.140141 -14.331979 -0.98543453 10259327
-46.644081 -14.338486 -1.0553141 11113346
-45.350925 -14.266215 -1.2583442 10721162
35.952209 -10.441228 -10.881724 10392195
-61.988361 -15.089519 0.67923594 7693898
-55.585453 -14.842279 -0.060440063 7626823
-54.953766 -14.805346 -0.074481964 7561802
-44.545326 -14.278718 -1.355516 10853769
-43.697948 -14.339298 -1.4594355 11181455
-62.166885 -15.3216 0.78300381 7693133
-56.552788 -15.129019 0.085683346 7167299
-42.610367 -14.468295 -1.6047492 11117200
-61.770622 -15.431121 0.68107033 7561806
-57.489922 -15.230186 0.13408184 7034946
-42.03796 -14.552491 -1.6563625 11117711
-41.814564 -14.54044 -1.7230396 11313803
-61.094646 -15.518435 0.56653118 7495239
-60.468842 -15.509311 0.4917264 8020045
-59.655823 -15.46145 0.39584017 7167304
-42.218815 -14.602995 -1.5860591 11313803
-61.540554 -15.5921 0.68796682 7429965
-60.94606 -15.603601 0.59603167 7626053
-59.258045 -15.535441 0.40588331 7101769
-58.551476 -15.430874 0.28453112 6905152
-58.076778 -15.47085 0.27647686 6969404
34.527748 -11.150167 -10.675793 10917771
33.590111 -11.392622 -10.602194 10326664
32.85379 -11.514851 -10.568607 9802372
32.361813 -11.759459 -10.478037 9931137
-39.053722 -15.172509 -2.0672345 12233117
30.995626 -12.03105 -10.374182 10525067
30.370186 -12.23103 -10.286154 10260101
29.255735 -12.564629 -10.124058 10064520
-35.30901 -16.068417 -2.5491223 10655366
25.698317 -13.300379 -9.7234774 11377545
24.121792 -13.561324 -9.6040726 10787983
24.634439 -13.52994 -9.604023 10590091
-33.565067 -16.598198 -2.7574222 11051677
22.029356 -14.221355 -9.3161812 10261385
-32.503368 -16.877609 -2.9251964 11316640
21.468901 -14.36747 -9.2541599 10195597
20.319431 -14.661454 -9.1166954 10589579
-30.734577 -17.329103 -3.0631328 13222593
-29.74181 -17.470455 -3.2478874 12567741
16.354801 -15.36324 -8.7365246 10656406
-28.281836 -17.68255 -3.4308178 12695466
-26.431538 -17.805225 -3.6876211 12629680
10.46292 -16.170544 -7.9877219 11783381
11.635865 -16.116766 -8.106431 11249573
-24.232349 -17.964966 -3.9070354 12369078
-23.114063 -17.961267 -4.0814853 12368817
6.9495344 -16.491253 -7.6479907 11513262
-21.584509 -18.032158 -4.2172699 12434355
-20.393517 -18.075489 -4.3920555 12237494
-20.000149 -18.128437 -4.4109592 12172984
-18.952354 -18.200092 -4.5292826 12236720
-18.316996 -18.210119 -4.615983 12236713
-17.665695 -18.251047 -4.6654201 12368303
-0.039311491 -17.449654 -6.772933 13418156
-2.3148162 -17.633127 -6.5668168 14142921
-13.787338 -18.287239 -5.2130041 12368300
-6.8134475 -18.005472 -5.9695778 16310231
-6.2876854 -17.980997 -6.0318189 16317178
-5.7428551 -17.965233 -6.106751 16380655
-4.0584688 -17.866396 -6.3154731 15985914
-3.5489779 -17.843916 -6.3455987 16316922
-7.9827576 -18.089931 -5.8322353 16446459
-7.3669434 -18.051664 -5.894702 16382458
-5.0988297 -17.944836 -6.1933947 14739959
-93.090858 17.96254 5.5544934 0
-92.972389 17.856377 5.5767641 0
-91.597244 17.392338 5.3445568 0
-41.170353 19.100998 -0.67834139 2301213
-39.494755 19.228596 -0.86485624 2040085
-39.052372 19.27672 -0.85576773 2301471
-38.690872 19.285618 -0.94922733 2695967
-38.215889 19.308142 -1.0155296 2761753
-37.657986 19.333288 -1.0614295 2761750
-36.9021 19.377649 -1.1304364 2760724
-34.873608 19.454147 -1.4215989 2763043
-33.974854 19.493921 -1.4776905 2958624
-32.255878 19.563116 -1.6614316 3090467
-31.085672 19.598005 -1.8107259 3747888
-30.647583 19.607983 -1.8529062 3746585
-29.265928 19.674784 -2.0768466 2630171
-90.122871 16.722462 5.1030731 0
-50.283115 18.573439 0.47733259 1778459
-25.052135 19.799284 -2.5379453 3484453
-89.929436 16.62772 5.1671348 0
-47.575321 18.693211 0.065851688 1776408
-22.145018 19.865433 -2.9047356 3222822
-89.676926 16.57235 5.0642676 0
-19.798548 19.874235 -3.1760783 2433052
-18.604912 19.908966 -3.2979579 3749929
-15.825357 19.850393 -3.6841931 2894113
-89.256126 16.281458 5.0133471 3417372
-59.059574 17.74641 1.4609008 2694418
-89.146469 16.217373 4.9777269 3089437
-60.393719 17.534676 1.6033883 2365711
-89.004623 16.124369 4.9472551 0
-6.4123859 19.868097 -4.8035898 3680288
-6.0813913 19.852667 -4.82374 3286053
-64.683868 17.083244 2.1424813 2892065
-2.874228 19.902365 -5.2170582 4275254
-0.0043052435 19.906769 -5.5816388 3684141
0.76441097 19.88171 -5.6546583 3418909
1.0655894 19.894491 -5.6601233 3287065
-68.455574 16.550058 2.515625 0
-68.268661 16.55587 2.5639491 0
1.8049438 19.871378 -5.8101912 3287336
2.988647 19.905657 -5.9309258 3681312
-83.66169 15.769249 4.3836813 2892303
4.0312047 19.875 -6.0773458 3552824
-83.22271 15.729667 4.3295498 0
-82.92067 15.706195 4.2319741 0
-82.353142 15.68261 4.1629858 2367000
-76.157295 15.679743 3.4492426 0
8.6757278 19.709068 -6.5905704 4733744
-76.896782 15.564881 3.543973 2826776
-76.598404 15.588364 3.519053 2761495
-76.304863 15.642867 3.4656301 0
11.323077 19.68145 -6.8892622 4342582
12.099281 19.687168 -6.9721589 3946038
15.599872 19.442926 -7.4717999 4015157
19.202774 19.031347 -7.9393473 5261635
19.896374 19.070337 -7.9406033 5065024
20.573959 18.972679 -8.04562 4078130
21.15307 18.909616 -8.1174221 4474175
21.672132 18.912951 -8.1594753 4407868
22.229134 18.790499 -8.2710543 4145469
23.495457 18.581043 -8.4709606 4935734
26.048401 18.336918 -8.7157135 5197125
27.167736 17.991827 -8.9330959 5196103
29.164223 17.800991 -9.088974 5657677
34.639961 16.277151 -9.8416462 6312270
37.142471 15.235448 -10.230029 11250333
37.982304 14.963237 -10.310439 12498338
41.310326 13.475726 -10.713246 6314313
41.5989 13.03194 -10.834414 5855060
42.33923 12.903067 -10.847332 5526339
42.596016 12.478223 -10.974091 5525315
43.560452 12.219751 -11.018585 6116684
46.020836 9.7761765 -11.462536 6972507
46.796837 8.6508007 -11.566037 8879204
46.997482 8.1300201 -11.6089 7762271
47.236599 7.1905155 -11.661388 7233122
47.119041 6.8261986 -11.690642 9273719
47.342258 6.3252392 -11.705267 8486253
47.131886 5.5369124 -11.74875 9469316
47.040081 4.1623287 -11.787281 7759972
47.309887 3.5822706 -11.780117 8942695
47.261669 3.0699139 -11.792797 8155485
47.272133 2.5802829 -11.811705 7957852
46.872883 2.1845038 -11.848593 6972240
46.777275 1.5607333 -11.879745 5657934
47.25106 1.1789857 -11.85969 6510414
47.014465 0.80912757 -11.874851 7629148
47.097534 0.54210234 -11.874305 8485483
46.753529 0.30810106 -11.891818 9008754
46.149693 -0.78901649 -11.889105 15986398
45.680367 -2.0823934 -11.849149 14474719
-76.183281 -9.3584652 2.5799913 7433299
-74.108688 -9.3214893 2.3221602 8222324
-77.433502 -9.6763153 2.7085471 5984321
-77.766708 -9.7489481 2.6754084 6510407
-82.161201 -10.20689 3.2671156 2828579
-83.068016 -10.389138 3.3694181 2499349
-68.821945 -9.7622204 1.5909328 8749173
-85.372856 -10.794444 3.5811486 2630684
-67.197884 -10.06712 1.3950438 9143161
-86.365868 -11.139505 3.6576967 2827817
-66.276138 -10.21466 1.2891183 9341565
-87.085381 -11.32592 3.8078852 3155491
-86.907692 -11.268055 3.798727 2828064
43.635651 -5.2482891 -11.717789 12560290
-87.27095 -11.404575 3.8273296 2893603
-64.991615 -10.396574 1.1686616 9670529
-87.774734 -11.704796 3.79638 2827043
-62.933723 -10.548763 0.86572552 9801860
-62.392616 -10.6536 0.79698086 10260876
43.15921 -5.7405787 -11.678333 12427923
-62.311577 -10.703147 0.86607742 10063501
-62.178593 -10.724483 0.78887558 10260876
-61.984043 -10.776676 0.7938695 9868171
-61.678284 -10.873707 0.78389549 9408136
-88.885857 -12.328718 3.9576683 3092778
-60.724659 -11.086069 0.58113527 9933449
42.672009 -6.2133603 -11.636883 12233629
-60.529644 -11.177838 0.57455921 9013375
-60.4025 -11.253592 0.5968852 9013375
-60.212711 -11.304355 0.562181 8684412
-59.930103 -11.338734 0.46654415 8815740
-59.730194 -11.491113 0.47737169 9012607
42.310688 -6.7319489 -11.571876 11510679
-90.809425 -13.099252 4.1810107 4407355
-59.814285 -11.717145 0.52969885 8617844
41.551666 -7.2061486 -11.528075 11837070
-59.812031 -12.263451 0.41903353 8617586
40.86203 -7.6475248 -11.481364 12168084
-95.275459 -14.11528 4.6301665 4143928
-94.737503 -14.031878 4.6089087 3881531
-95.532822 -14.209761 4.7181268 3947576
-60.284409 -12.599229 0.5543437 8946295
40.499794 -8.0869627 -11.39325 14659214
-96.264069 -14.481377 4.7356629 3881526
-96.782753 -14.675562 4.790936 4536885
-60.782108 -13.591798 0.5581708 9600105
38.468685 -9.0700703 -11.225124 10391430
-61.078331 -13.905239 0.57234812 9075818
-61.559822 -14.24814 0.62788343 8943456
-61.220657 -14.180278 0.53919935 8812900
37.17466 -9.7108593 -11.082806 10590094
-52.428207 -14.031837 -0.4908967 8811620
-51.20969 -13.935108 -0.63370514 8944232
-61.564457 -14.516357 0.56836081 8615260
-61.862335 -14.592714 0.66183758 8023636
-49.042347 -14.046322 -0.84754658 9736063
-48.601963 -13.994162 -0.93886089 9802354
-54.527493 -14.430051 -0.24315405 7695180
-47.50108 -14.021685 -1.1022582 10194821
-46.873611 -14.052492 -1.1787028 10720650
-61.933311 -14.825663 0.65190458 7630160
-55.20433 -14.51992 -0.20542336 8153166
-46.185665 -14.172974 -1.2051744 11049352
-56.538589 -14.882935 -0.038172722 7495497
-56.136597 -14.875876 -0.045859814 7693129
-43.117943 -14.257737 -1.6370077 11116690
-61.721897 -15.185073 0.59338999 7759692
-56.935123 -15.033073 0.044344425 7233857
-42.35413 -14.403047 -1.7137737 11118226
-61.432598 -15.392484 0.57135582 7758925
-61.242031 -15.433628 0.54699326 7692619
-60.815189 -15.351266 0.43824863 7823435
-59.338722 -15.272106 0.25374889 7496268
-58.235214 -15.221558 0.14322901 7299394
-57.876122 -15.195671 0.12122536 7363908
-60.667027 -15.426455 0.4681282 7954763
-60.09166 -15.399669 0.40001535 7693902
-58.940929 -15.346098 0.26378965 7560776
-41.576004 -14.568938 -1.7627969 11379855
-40.119484 -14.83914 -1.997786 11643542
29.522076 -12.196373 -10.28387 10326408
28.438993 -12.538921 -10.115774 10326410
27.03627 -12.803439 -9.9770746 10786445
27.72225 -12.72273 -10.02629 10458499
26.598024 -12.935107 -9.8989716 10589837
25.005705 -13.237633 -9.7589941 10785924
-34.252502 -16.336422 -2.7561526 11313812
23.519075 -13.6065 -9.6038952 10392714
20.795771 -14.323412 -9.3027782 9540235
19.581551 -14.57917 -9.1863642 10195850
18.796568 -14.766569 -9.0787296 10065550
16.969391 -15.100863 -8.8915539 10591122
-29.36964 -17.438173 -3.4123409 12631220
-28.931719 -17.549871 -3.418565 12630190
15.374072 -15.498102 -8.643816 10984592
13.712473 -15.682178 -8.5315723 11315608
9.2318344 -16.122057 -7.97925 10592668
7.4996257 -16.322309 -7.7885871 11379090
-22.740669 -17.942646 -4.1558771 12433840
5.6647873 -16.5986 -7.5580802 11774614
6.3730326 -16.54727 -7.6009712 11318178
-21.103277 -17.965191 -4.3835087 12434620
3.3799715 -16.894598 -7.3045235 11840422
4.3187594 -16.833363 -7.3545599 11709339
1.0244598 -17.163885 -7.0415158 11907233
-17.025469 -18.114206 -4.9086967 12434100
-16.287703 -18.140284 -4.9881248 12498859
-3.1934559 -17.609476 -6.571321 14205148
-14.371988 -18.232374 -5.1912122 12498353
-4.6583066 -17.757677 -6.4007931 16050916
-11.816428 -18.190943 -5.5570068 12300186
-8.6308603 -18.056356 -5.843914 15661051
-93.698433 18.79023 5.5161967 0
-93.495995 18.75882 5.5109038 0
-93.257782 18.710724 5.4604263 0
-93.02063 18.38003 5.4603233 0
-93.021454 18.189541 5.463644 0
-92.997337 18.031446 5.4349027 0
-92.912567 17.905367 5.4201798 0
-92.715981 17.832844 5.4342861 0
-92.419052 17.777893 5.3663912 0
-92.089859 17.664433 5.2925439 0
-91.810585 17.515739 5.2939768 0
-91.2715 17.220762 5.2186198 0
-90.411591 16.831108 5.0912442 0
-44.13097 18.997721 -0.43748903 2300699
-43.599651 19.030394 -0.44972181 2301197
-30.097504 19.579779 -2.0711336 2695710
-27.489731 19.701593 -2.38992 3483677
-52.385208 18.393402 0.53173113 2302494
-48.664886 18.615786 0.11323023 2038293
-24.481339 19.722441 -2.7705014 3420199
-54.725742 18.17235 0.85514593 2696214
-53.148968 18.314943 0.69115496 2301723
-89.445778 16.46722 4.9319372 3286043
-19.254337 19.80492 -3.3749375 3418665
-17.858799 19.877405 -3.4793749 3353120
-16.964695 19.85943 -3.5974572 3089180
-89.333656 16.359522 4.985148 3417372
-89.210533 16.308128 4.8979573 3417372
-13.037104 19.822224 -4.0703459 3352089
-59.913319 17.621605 1.4379683 2497809
-61.769611 17.354731 1.6613026 2039828
-10.645679 19.775587 -4.4095516 2958376
-8.4937096 19.823275 -4.6057005 2893603
-64.307365 17.137396 1.9379749 2958366
-9.4844866 19.760454 -4.5696559 1910559
-7.2849579 19.83078 -4.780817 3551528
-65.129066 17.059134 2.0338073 2825753
-5.2342925 19.726608 -5.0408335 3155748
0.41735613 19.790085 -5.7271709 3684144
1.2534949 19.788586 -5.817524 3681059
-68.620193 16.514862 2.4736538 0
3.2269883 19.782093 -6.0950174 3616290
-82.640083 15.692144 4.1272254 0
-81.713821 15.674841 4.0254831 2498322
-73.136078 16.03581 2.9683275 2892826
-72.35524 16.112585 2.86726 3351322
5.3092623 19.747757 -6.31602 3289387
-73.879189 15.951613 3.0444231 2762514
6.2629595 19.702965 -6.4522805 3618615
-80.274986 15.521358 3.8572907 2630167
-75.908981 15.737509 3.2703452 2564377
7.4877572 19.620365 -6.6123958 3749424
-79.724022 15.446573 3.7985034 1647129
-79.315666 15.438883 3.6685867 1974295
-78.819664 15.461974 3.609868 2565143
-78.343567 15.513731 3.564631 2826004
-77.196091 15.60427 3.5006833 2760729
-76.314407 15.659031 3.3061028 2630169
9.9595261 19.484964 -6.9039497 4144941
13.754122 19.469093 -7.2996345 3682861
16.194067 19.382225 -7.585618 3818040
16.901768 19.305557 -7.6834369 3553848
18.171492 19.183802 -7.8201241 4342840
18.668674 19.009377 -7.9465704 6245187
21.355957 18.654785 -8.2920771 4802371
22.632917 18.485003 -8.4716549 5850179
24.354584 18.392223 -8.6111479 5524031
27.807974 17.724039 -9.0800838 5787451
28.580488 17.579548 -9.1679831 5723466
29.421379 17.379467 -9.296299 5920329
30.313908 17.161371 -9.4214067 6509899
31.429058 16.932394 -9.5433693 6907486
32.454357 16.600868 -9.698595 7038822
33.32061 16.409901 -9.7792473 7628637
33.945168 16.23852 -9.8503227 8090732
35.736664 15.76096 -10.062449 7827552
38.559334 14.54247 -10.455353 9540502
39.309071 14.088916 -10.602037 11053729
40.040436 13.683273 -10.714558 12885932
40.63113 13.370284 -10.786671 6907490
41.039165 13.119214 -10.84471 6181962
41.825623 12.556516 -10.979563 5525046
44.185829 11.016012 -11.318463 6378573
45.106472 10.61547 -11.362823 6837071
46.153538 9.0742579 -11.55415 6906199
46.552532 7.5533042 -11.677057 8546916
46.743965 7.0712781 -11.697242 8224105
46.679684 6.6490178 -11.724923 8353120
46.591923 6.0756273 -11.755202 8817761
46.725677 4.8307409 -11.795992 7629154
46.589222 3.574101 -11.82491 10059892
46.660847 2.8664458 -11.838843 8289634
46.205738 1.3982263 -11.917774 6974287
46.606388 1.0734977 -11.896939 6970707
46.534176 0.66003776 -11.903173 7430739
46.329399 0.060786247 -11.910279 8351618
46.326904 -0.30023932 -11.902849 13280708
45.610245 -1.3421843 -11.89469 11904936
44.677513 -2.6842492 -11.871377 15791604
44.192898 -3.66745 -11.83858 15595225
-75.316246 -9.332325 2.3357263 8026223
-77.226845 -9.6296663 2.5141044 6317650
-72.536842 -9.5125895 1.9854751 8355446
-81.60434 -10.046396 3.0952001 3024926
-71.175529 -9.588007 1.789084 8682355
-81.785942 -10.122799 3.063838 3024926
-82.311462 -10.278944 3.1616249 2828579
43.882069 -4.6246119 -11.775269 13424562
-85.058357 -10.696477 3.4662776 2630428
-67.89576 -9.9470921 1.4226604 9470324
-67.577377 -10.011465 1.361969 9142390
-66.813622 -10.127177 1.2963357 9602684
43.204578 -4.9937534 -11.767735 12759472
-86.692261 -11.250175 3.5820165 2762279
42.7906 -5.372283 -11.751823 14733774
-64.573647 -10.452997 1.0156574 9934473
-87.569359 -11.611908 3.694427 2697251
-64.138237 -10.491507 0.93175983 9736846
-63.802509 -10.495052 0.87117958 9934224
-87.966568 -11.830856 3.7443113 2631204
-62.244545 -10.685889 0.75786304 10260876
-62.019844 -10.733375 0.67879438 9868171
-88.467239 -12.105874 3.8348298 2568490
-61.737549 -10.800666 0.65253448 9408136
-61.374657 -10.894211 0.61568069 9670788
-61.0205 -10.988577 0.58993578 9998733
-60.508415 -11.071871 0.45489645 9538693
-60.329239 -11.175621 0.48002386 9538693
-60.106567 -11.202785 0.39184284 9079169
-90.33194 -12.942442 4.0184598 4211006
-59.434944 -11.492831 0.33098555 9210752
-59.562515 -11.601271 0.40285969 9078141
-59.447769 -11.633874 0.33752918 9078141
-59.382549 -11.599792 0.30573797 9209982
-59.530144 -11.71896 0.37458515 9078141
-59.398888 -11.670781 0.31015348 9209982
-92.341072 -13.386055 4.2436848 4539456
-59.609486 -11.933123 0.38647938 8815480
-93.868942 -13.565556 4.3803282 4011569
-94.105629 -13.679085 4.4651508 3814710
-59.421795 -12.131126 0.27616358 8487035
-95.023193 -14.052282 4.5719171 3947326
-95.774857 -14.226068 4.6256642 3947575
-96.0159 -14.348142 4.6703787 3751479
-59.673149 -12.664597 0.3274312 9340277
39.506359 -8.2278605 -11.410078 11179916
-97.002922 -14.711272 4.7052355 4340787
-59.970428 -13.050179 0.38954449 9208687
-59.503445 -13.005537 0.26453257 9471603
-97.42144 -14.993298 4.8057833 4407082
-97.728615 -15.18516 4.7752786 4342072
-59.647945 -13.381938 0.25822449 8946029
-60.180992 -13.539259 0.37701797 8814697
37.535931 -9.1789646 -11.227942 10655365
-60.767502 -13.957479 0.45253372 9402985
-60.467186 -13.911427 0.36772871 9206636
-60.929783 -14.174255 0.44402695 9206375
-60.658337 -14.179149 0.35079336 9206117
-52.859978 -13.816518 -0.56231833 8615270
-53.424393 -13.96489 -0.44952393 8744544
-51.912548 -13.905743 -0.59867048 9074282
-50.497616 -13.809041 -0.78520679 9274991
-61.285652 -14.431295 0.48757458 8482904
-61.063969 -14.349721 0.43366575 8812900
-60.868671 -14.378986 0.36884212 8746343
-54.58683 -14.116961 -0.36582279 8286028
-54.101704 -14.015182 -0.40025282 8418659
-49.521767 -13.824037 -0.89282036 10195072
-61.099739 -14.530188 0.40122175 8482904
-48.130341 -13.878464 -1.0820136 10260356
35.757168 -9.9315109 -11.0516 10523781
-61.330132 -14.612581 0.46620369 8284761
-54.927856 -14.253272 -0.319736 8219218
-61.570393 -14.725029 0.52126074 8284761
-61.260468 -14.72771 0.41339874 8284749
-45.051571 -13.933525 -1.4939575 11049348
35.20451 -10.208124 -10.975042 11246224
-55.795929 -14.56499 -0.19651842 8087883
-44.355846 -13.960743 -1.5885248 11444368
-61.592262 -14.916094 0.51699781 7694674
-61.146717 -14.862032 0.38481092 8021069
-56.359222 -14.670822 -0.14276171 7758925
34.517673 -10.449734 -10.911378 11772569
-56.834091 -14.752527 -0.098782539 7956304
-61.229561 -15.118011 0.43590832 7889740
-57.251244 -14.913218 -0.02425766 7759943
-42.732685 -14.216082 -1.7724614 11116690
33.712185 -10.70687 -10.834028 10327700
-61.038933 -15.188745 0.40041447 7824204
-60.627117 -15.138329 0.32255554 7757903
-60.099689 -15.153785 0.25867558 7955288
-59.017975 -15.113432 0.13025951 7890253
-58.27766 -15.018534 0.03470993 7824460
-57.981953 -15.056848 0.048204899 7627850
-57.65625 -15.001674 0.011090279 7626826
-42.108604 -14.347887 -1.8319941 11380114
-60.922913 -15.264603 0.41398382 7824204
-60.578918 -15.22776 0.35383606 7889746
-60.384361 -15.279956 0.35886002 7955797
-59.754303 -15.219377 0.25513506 7889234
-58.610703 -15.176962 0.13953924 7497546
32.930191 -10.993746 -10.740396 10523788
-41.293957 -14.520844 -1.9158597 11643033
-40.728279 -14.61288 -2.0274153 11839118
32.189457 -11.28911 -10.641965 10392979
-39.622929 -14.901496 -2.1705275 12102300
31.420998 -11.606204 -10.53087 10590347
29.696922 -11.904022 -10.395112 10786186
30.187346 -11.872848 -10.412546 10327432
-38.510033 -15.188934 -2.3346496 11841188
-35.917889 -15.799265 -2.6477194 10589837
26.078472 -12.885568 -9.9255085 11049101
24.387774 -13.21268 -9.7746372 10852491
22.825888 -13.655472 -9.6030788 10063994
-32.955086 -16.620308 -3.0632641 11512474
21.307119 -14.02501 -9.4642906 9999500
-31.930752 -16.872694 -3.1953447 12303801
-30.445223 -17.164446 -3.3640697 12895674
14.252578 -15.484089 -8.659832 11052441
12.798963 -15.691379 -8.5028706 10855577
-27.686331 -17.608627 -3.6508169 12565167
-25.642725 -17.753534 -3.9013965 12303279
8.255724 -16.185854 -7.9046788 10855356
-23.598909 -17.806366 -4.1990919 12303793
4.964427 -16.629139 -7.5255051 11577499
-20.668846 -17.911243 -4.5244226 12630709
-20.279884 -17.94315 -4.5722713 12434619
-19.766361 -17.948009 -4.6643343 12435384
2.155503 -16.989542 -7.2113147 11775656
-17.746347 -18.004 -4.9088755 12498865
-1.3546579 -17.330935 -6.8526015 12764603
-15.509549 -18.11199 -5.1309094 12565166
-3.8660934 -17.618303 -6.5513492 14933754
-10.116739 -17.997658 -5.8548927 13092025
-9.2918396 -17.940073 -5.9317093 14932706
-94.193222 18.960962 5.491055 0
-93.91053 18.883686 5.4643865 0
-93.771439 18.885162 5.4477406 0
-93.716949 18.923943 5.4123631 0
-93.583946 18.889305 5.4153223 0
-93.81321 18.836142 5.5013976 0
-93.050018 18.592434 5.3808084 0
-92.878281 18.231169 5.3270202 0
-92.920082 18.09837 5.3473973 0
-92.878616 18.001097 5.3187666 0
-92.767677 18.087934 5.2682557 0
-92.726906 17.938145 5.2982831 0
-92.497032 17.879244 5.2584724 0
-92.218323 17.813023 5.2024775 0
-90.901283 17.033321 5.0363927 0
-90.798813 16.987663 5.0325327 0
-90.686844 16.952461 5.0279069 0
-44.816635 18.966213 -0.36639214 1843224
-43.186558 19.034575 -0.62010193 2105362
-50.822388 18.5599 0.25939989 2763056
-50.459312 18.574738 0.26672268 2895926
-47.016689 18.754593 -0.13002729 1908247
-45.555016 18.893894 -0.33072805 2039311
-33.061672 19.464264 -1.7798862 2761487
-31.590694 19.521921 -1.9342678 3418390
-89.853371 16.692017 4.8982763 3288610
-23.136501 19.747103 -2.9814527 3090205
-20.619823 19.783014 -3.2520778 3157285
-57.01284 18.028345 1.0640774 2169364
-55.40498 18.096506 0.79288149 2498328
-55.044334 18.141647 0.79153204 2434329
-89.224937 16.371607 4.8012176 3417372
-58.737083 17.819288 1.2333198 2628627
-59.508289 17.693773 1.3113289 2891796
-15.341036 19.758696 -3.8867264 3092006
-89.048508 16.248959 4.7957602 0
-88.87487 16.13702 4.7708778 0
-88.673203 16.095978 4.7552743 0
-88.17881 16.129414 4.6870346 0
-62.087852 17.343634 1.6084099 2169877
-61.350677 17.416311 1.5628157 2301465
-11.785678 19.715816 -4.3554506 2761496
-87.680717 16.102587 4.6262665 0
-65.632576 17.018574 2.0222716 2499103
-6.8447008 19.744968 -4.9274688 2829858
-66.916061 16.867979 2.1910834 2497563
-6.369544 19.678717 -5.0271959 3353125
-84.194908 15.905195 4.190556 0
-68.020447 16.656525 2.3160534 0
-67.515076 16.762552 2.1987333 2563606
-5.8500252 19.642479 -5.0808182 2565921
-1.9438701 19.81184 -5.4832187 3486250
-1.083095 19.793554 -5.6275139 4143154
-0.51562297 19.799551 -5.6853709 3880490
-84.022583 15.852793 4.1780648 0
-68.814293 16.540796 2.3769579 0
-68.431458 16.599447 2.3129625 0
-83.85144 15.800749 4.1556425 0
-83.691055 15.768206 4.1352129 0
-69.306969 16.437841 2.4323969 3022357
0.8107512 19.720854 -5.8373647 3550757
-83.387794 15.73107 4.1276984 0
-83.05558 15.699005 4.0261893 0
-70.962936 16.219065 2.6636472 2565400
-70.293564 16.261875 2.5445042 2629913
-69.800056 16.344868 2.4882455 2302231
2.0168221 19.679871 -6.0541987 3747873
-82.128548 15.691324 3.9347582 2367000
4.3883381 19.678183 -6.2885737 3287846
-74.661598 15.868902 3.0446758 2499864
-79.966202 15.502747 3.6482034 3088665
-77.914337 15.595379 3.4757504 3153683
-75.352371 15.80591 3.1455154 2629399
-76.8993 15.635107 3.2948503 2826776
-76.619934 15.637703 3.2714601 2761495
9.1913424 19.440851 -6.8536339 3683375
12.798902 19.281197 -7.3529806 4407348
14.615614 19.292866 -7.5001192 3881780
19.013601 18.769922 -8.107461 4867647
19.546865 18.811857 -8.0994492 5196866
20.066088 18.726418 -8.1749239 4867895
20.676563 18.654402 -8.240756 4407603
23.099733 18.210802 -8.6383743 4540230
26.993183 17.561865 -9.1292162 6445390
34.095215 15.821188 -10.024462 7962464
34.931484 15.747204 -10.057006 7760222
36.181049 15.167707 -10.288387 8156519
37.578686 14.572205 -10.467566 9016207
40.644188 12.985348 -10.912962 6839119
41.113708 12.746318 -10.957804 6639944
42.276096 12.099447 -11.100533 5918276
42.992744 11.513905 -11.237916 5853519
44.726738 9.9742527 -11.501602 6972501
45.927811 8.2181005 -11.66879 7626844
46.147663 6.9980488 -11.739166 8286822
46.12801 6.4874358 -11.765303 7564898
45.843246 5.9965439 -11.809278 7629924
46.303478 5.4345284 -11.80415 8420461
45.905479 4.7983408 -11.839767 9730926
46.25499 4.24159 -11.831275 8088162
45.849918 3.7751031 -11.859926 9863803
45.9062 3.1967685 -11.867355 8089695
46.055954 2.5227573 -11.889486 8153698
46.173832 1.8972696 -11.906042 7694676
45.918842 0.9868418 -11.948539 6707530
45.783009 0.4303962 -11.95229 6905433
45.53355 -0.050912857 -11.949779 8945534
45.485626 -0.51407456 -11.940577 10264208
45.395557 -0.9191885 -11.924191 10523555
44.944134 -1.2277927 -11.941585 12102317
44.713173 -1.8295028 -11.9154 11581887
-74.710266 -9.3404064 2.1719799 8419953
-80.636147 -9.795908 2.856966 2437413
-80.389755 -9.7740202 2.8180852 3619631
-80.141754 -9.762475 2.7887263 3946288
-79.773476 -9.7753353 2.7440453 4867643
-73.629494 -9.4313622 2.0691781 8746865
-81.131622 -9.8881636 2.892951 2962730
-79.182465 -9.8286676 2.6913118 5525813
-78.774506 -9.8396816 2.6419353 5522999
-78.243576 -9.8133125 2.5388513 5658185
-77.490189 -9.7090492 2.4723043 6250050
-81.433372 -10.01265 2.9347792 2895134
-72.059334 -9.5662479 1.8254232 8485233
-71.58905 -9.5851898 1.7884221 8879220
43.110283 -4.2630138 -11.851006 12363420
-70.329796 -9.6249371 1.5955119 8682091
-82.008781 -10.220305 3.0165219 3221538
-69.29509 -9.7059669 1.4481878 8814709
-84.582893 -10.519348 3.2946444 2236956
-82.830666 -10.406944 3.0681787 2368793
-82.546234 -10.356584 3.10637 2172699
-83.094467 -10.460061 3.1180811 2106394
-85.114639 -10.736215 3.4010472 2630428
-84.963524 -10.687105 3.3342967 2891804
-68.143486 -9.8961353 1.3937731 9470065
43.046528 -4.7381577 -11.810069 11251118
-85.578979 -10.916221 3.410017 2696477
42.659832 -5.0554051 -11.795256 15851461
-86.930214 -11.320439 3.5879073 2828064
-65.470291 -10.348511 0.9759078 9603976
-87.368782 -11.501308 3.6440988 2828587
-63.235424 -10.495352 0.7224412 10196105
42.271225 -5.8161426 -11.715555 13548452
-62.035805 -10.68915 0.56137037 9802383
-61.802338 -10.749123 0.55132437 9540746
-61.49506 -10.813599 0.48187494 9802373
-61.075031 -10.903658 0.4181118 9999241
-60.745083 -10.99121 0.44589663 9933449
41.770046 -6.2487388 -11.691124 11510676
-59.856499 -11.227842 0.28030396 9473665
-59.59713 -11.347867 0.29521656 9472898
41.061974 -6.599297 -11.679217 12493201
-59.295361 -11.644301 0.25838757 9209982
-59.165352 -11.566166 0.19518566 9342082
-59.120609 -11.713708 0.174438 9275521
-93.114449 -13.418755 4.2547455 4013872
-59.338364 -11.776742 0.26883364 8946812
-93.794792 -13.537146 4.2515159 4011569
-93.678581 -13.504622 4.3092914 3749679
-93.355255 -13.448734 4.2523432 4012590
-92.772781 -13.410786 4.1636024 4342326
-59.133022 -11.864734 0.18054104 9078653
-93.96093 -13.604891 4.269021 4011569
-93.849899 -13.560951 4.287508 4011569
-59.312218 -11.955154 0.24920511 8946812
-59.147873 -11.985447 0.17797232 9078653
-59.230663 -12.060556 0.21543741 8487035
-59.105209 -12.083071 0.15927362 8684668
-94.46759 -13.861839 4.4012308 3683632
-59.217354 -12.169552 0.19985437 8487035
-59.031921 -12.228868 0.12504196 8684668
-95.541328 -14.12146 4.5106959 3881271
-95.243866 -14.035118 4.4176288 3947065
-59.374931 -12.358169 0.24220657 8946039
-95.805931 -14.170897 4.4701276 3488567
-95.995819 -14.271406 4.5296235 3751479
-96.228127 -14.392662 4.5632329 3423541
-59.128288 -12.665106 0.16120863 9471608
-96.517151 -14.527386 4.6233091 4208438
-97.213463 -14.809032 4.6765795 4473659
38.39922 -8.4448957 -11.395825 10590345
-97.685944 -15.088612 4.6627598 4342072
-59.134682 -13.25513 0.13061857 9667698
37.745029 -8.7550001 -11.33855 10655374
-97.927216 -15.302778 4.7545614 4670276
-98.110779 -15.388453 4.7029557 4801344
-59.786118 -13.756805 0.22097826 9011050
-59.406918 -13.667485 0.13837957 9338977
-54.232258 -13.606205 -0.49076986 8614758
-53.756512 -13.57406 -0.54672861 8811619
-60.095646 -13.961253 0.25076962 8945002
-59.596458 -13.945539 0.13093615 9075300
-54.609169 -13.653352 -0.45730543 8877931
-50.100155 -13.514282 -0.97346878 10063487
-59.829727 -13.987645 0.18765831 9010024
-52.368641 -13.640716 -0.68552589 9010032
36.25248 -9.5563078 -11.147919 10524554
-60.365856 -14.183468 0.26514339 9141092
-60.130939 -14.181297 0.20678377 9008992
-59.955284 -14.103105 0.18851328 9075547
-55.135689 -13.897907 -0.40290689 8681314
-54.845627 -13.885231 -0.41709852 8614751
-54.654705 -13.906768 -0.4307394 8484444
-54.47377 -13.899172 -0.43201303 8352864
-48.691978 -13.619589 -1.1261849 12167058
-54.627541 -13.996759 -0.40701199 8286028
-49.140675 -13.682553 -1.0242052 10985874
-60.615459 -14.395139 0.28748035 8746594
-60.264297 -14.376724 0.19557333 8548437
-55.424191 -14.101797 -0.36553144 8549473
-55.063496 -14.086245 -0.37804222 8548446
-54.774689 -14.043619 -0.3910346 8482902
-47.790123 -13.738463 -1.2186022 10391682
-47.295254 -13.744612 -1.2983832 10129793
-46.605206 -13.720832 -1.4206953 10983303
-60.922607 -14.600302 0.33710575 8352852
-55.800426 -14.290588 -0.2969327 8155225
-55.356735 -14.302012 -0.30023479 8417368
