# .PCD v0.7 - Point Cloud Data file format
VERSION 0.7
FIELDS x y z label
SIZE 4 4 4 4
TYPE F F F U
COUNT 1 1 1 1
WIDTH 1544
HEIGHT 1
VIEWPOINT 0 0 0 1 0 0 0
POINTS 1544
DATA ascii
270.875 87.274994 -436.17499 2411
270.56 87.260002 -435.82999 2411
270.94 87.169998 -436.51999 2411
271.01999 86.940002 -436.73999 2411
270.82001 86.860001 -436.70001 2411
270.76666 86.75 -436.74332 2411
270.70001 86.910004 -436.60999 2411
270.5 86.75 -436.63 2411
270.09 87.209999 -435.79001 2411
270.20999 86.949997 -436.42999 2411
270.25 86.75 -436.54999 2411
270.44 87.290001 -434.39999 2412
257.06 87.389999 -429.97 2413
258.67999 87.779999 -429.72 2414
258.57999 87.559998 -429.95001 2414
258.72 87.410004 -430.14001 2414
256.45999 88.699997 -428.73001 2415
256.59 88.370003 -429.04001 2415
256.20999 88.419998 -428.94 2415
256.66 89.639999 -427.89001 2416
256.67001 90.540001 -427.14999 2417
258.48999 88.389999 -429.09 2418
258.42999 89.629997 -427.98001 2419
258.73001 90.870003 -427.04001 2420
257.20001 91.860001 -426.14999 2421
258.67001 91.970001 -426.20999 2422
260.82999 87.75 -430.04999 2423
260.57999 87.93 -429.78 2423
262.76001 87.709999 -430.51001 2425
262.60999 87.540001 -430.75 2425
260.42999 88.489998 -429.17001 2426
260.60999 89.690002 -428.12 2427
260.41 90.889999 -427.17999 2428
262.47 88.660004 -429.31 2429
262.67001 88.400002 -429.62 2429
262.45001 88.169998 -429.85001 2429
262.89001 90.029999 -428.09 2430
262.70001 90.910004 -427.39999 2431
260.98999 92.059998 -426.39999 2432
261.01001 93.440002 -425.38 2433
262.67001 92.32 -426.45999 2434
262.54001 91.980003 -426.67001 2434
262.95999 93.459999 -425.66 2435
256.64001 93.129997 -425.09 2436
256.54001 92.800003 -425.37 2436
256.64001 93.790001 -424.53 2437
258.64001 92.559998 -425.73001 2438
258.63 93.919998 -424.64001 2439
260.70999 94.18 -424.76999 2440
262.78 94.379997 -424.92001 2441
256.81 95.129997 -423.54001 2442
256.73999 94.849998 -423.73999 2442
256.41 96.349998 -422.69 2443
256.54999 97.639999 -421.97 2444
256.39999 97.370003 -422.10001 2444
256.53 97.040001 -422.29999 2444
256.25 97.160004 -422.20999 2444
256.01999 97.010002 -422.26999 2444
255.62 97.110001 -422.16 2444
256.37 96.839996 -422.39999 2444
256.16 96.650002 -422.48999 2444
255.75 96.839996 -422.32999 2444
255.67999 96.559998 -422.48001 2444
258.54001 95.459999 -423.51999 2445
258.82001 96.309998 -422.98999 2446
258.97 97.690002 -422.20999 2447
256.35999 98.779999 -421.41 2448
258.51001 98.639999 -421.70001 2449
256.94 99.949997 -420.98001 2450
256.82999 102.1 -420.16 2451
258.78 100.08 -421.12 2452
258.79001 102.37 -420.26999 2453
260.81 95.300003 -423.95001 2454
260.78 96.5 -423.13 2455
260.78 98.089996 -422.25 2456
260.67001 97.82 -422.37 2456
262.75 95.360001 -424.17001 2457
263.13 98.309998 -422.45001 2458
262.79001 98.120003 -422.51001 2458
261.01001 99.559998 -421.60001 2459
262.85001 99.730003 -421.76999 2460
260.60999 100.04 -421.35001 2461
260.26001 102.23 -420.48001 2462
262.48999 100.65 -421.35999 2463
264.64999 87.360001 -431.53 2464
264.97 87.150002 -432.04001 2464
264.79999 87.230003 -431.81 2464
264.76001 87.07 -432.20001 2464
264.82001 87.910004 -430.70999 2465
264.91 87.699997 -431.03 2465
264.60999 87.519997 -431.23001 2465
266.64999 88.07 -431 2467
266.70001 89.190002 -429.60999 2468
264.26001 88.779999 -429.51999 2469
264.54999 89.900002 -428.48999 2470
266.34 89.919998 -428.81 2471
264.92999 92.150002 -426.89999 2472
265.32001 93.940002 -425.54999 2473
264.88 93.830002 -425.59 2473
265.23001 93.610001 -425.81 2473
265.10999 93.379997 -425.98001 2473
264.89999 93.580002 -425.79999 2473
264.62 93.699997 -425.67999 2473
264.73001 93.410004 -425.92001 2473
266.76001 91.540001 -427.57999 2474
266.39001 92.389999 -426.89001 2475
266.63 93.629997 -425.98999 2476
268.57999 87.639999 -432.34 2477
269.06 87.660004 -432.51001 2477
269.13 87.57 -432.73001 2477
268.92001 87.480003 -432.84 2477
268.97 87.410004 -433.06 2477
268.72 87.540001 -432.62 2477
268.5 87.410004 -432.79999 2477
268.19 87.470001 -432.51999 2477
268.32001 87.290001 -433.04999 2477
268.39001 88.480003 -430.97 2478
268.92001 89.279999 -430.13 2479
268.64999 89.410004 -429.89001 2479
268.69 89 -430.39001 2479
270.39999 87.970001 -432.45999 2480
270.35001 89.040001 -430.85001 2481
270.72 89.669998 -430.17999 2482
268.39001 90.220001 -428.98001 2483
270.32001 90.660004 -429.06 2484
269.01001 91.730003 -427.85999 2485
268.42999 92.459999 -427.19 2486
268.48001 93.970001 -426.03 2487
270.98999 91.889999 -428.14001 2488
270.23001 92.610001 -427.39999 2489
270.66 94.110001 -426.35999 2490
264.88 94.559998 -425.01001 2491
266.79001 94.900002 -425.04001 2492
268.48999 94.860001 -425.37 2493
271.09 95.389999 -425.51001 2494
264.87 95.730003 -424.17001 2495
264.44 96.440002 -423.64999 2496
264.97 98.5 -422.59 2497
266.75 95.599998 -424.53 2498
266.60001 97.43 -423.37 2499
266.92999 98.300003 -422.98001 2500
264.64001 100.03 -421.88 2501
266.98001 100.04 -422.23999 2502
267.17999 101.78 -421.63 2503
264.17999 100.41 -421.67001 2504
264.42999 102.09 -421.10001 2505
266.70999 102.69 -421.25 2506
268.66 95.910004 -424.67001 2507
268.37 95.580002 -424.82999 2507
269.04001 97.900002 -423.57001 2508
268.81 97.690002 -423.64001 2508
268.94 97.410004 -423.81 2508
268.54999 98.589996 -423.14999 2509
270.76999 96.550003 -424.66 2510
270.76999 97.75 -423.98999 2511
270.26001 98.489998 -423.51999 2512
269.07001 100.31 -422.48999 2513
268.79999 101.63 -421.95001 2514
270.67999 100.21 -422.84 2515
271.23999 101.89 -422.31 2516
241.02 104.14 -417.92001 2517
240.89 105.97 -417.41 2518
242.7 103.82 -418.17999 2519
242.75 106.16 -417.54001 2520
244.23 103.83 -418.32001 2521
244.50999 106.19 -417.72 2522
246.87 104.22 -418.44 2523
246.7 106.12 -417.92001 2524
245.25999 107.95 -417.44 2525
245.13 107.64 -417.48001 2525
244.82001 107.36 -417.51001 2525
244.56 107.75 -417.41 2525
246.94 107.53 -417.64999 2526
248.47 104.15 -418.60001 2527
248.88 105.95 -418.14001 2528
251.31 103.81 -418.98001 2529
250.94 104.09 -418.85999 2529
250.46001 106.34 -418.20001 2530
250.67999 105.96 -418.31 2530
248.92 107.85 -417.78 2531
248.67 109.85 -417.51999 2532
250.7 108.31 -417.89001 2533
250.38 108.08 -417.89001 2533
250.45 109.68 -417.70999 2534
252.46001 104.28 -418.95001 2535
252.47 106.19 -418.44 2536
254.75999 103.83 -419.34 2537
254.24001 104.25 -419.14999 2538
254.82001 106.09 -418.73001 2539
252.71001 108.29 -418.10999 2540
252.53999 110.26 -417.91 2541
254.78 108.15 -418.37 2542
254.86 110.12 -418.20999 2543
250.89 111.78 -417.67001 2544
250.52 113.91 -417.64001 2545
248.78 117.85 -417.53 2546
250.38 116.15 -417.64001 2547
251.11 118.5 -417.89001 2548
250.75 118.25 -417.82999 2548
252.78999 111.93 -417.89999 2549
253.14999 114.39 -417.95999 2550
254.61 111.84 -418.14001 2551
254.87 114.05 -418.20001 2552
252.47 115.82 -417.89001 2553
252.91 118.05 -418.04999 2554
254.83 116.21 -418.20001 2555
254.59 118.15 -418.28 2556
243.14999 122.09 -417.38 2557
240.69 124.19 -417.69 2558
240.84 126.33 -418.42001 2559
242.67 124.22 -417.85999 2560
242.39 126.13 -418.48001 2561
244.67 122.1 -417.56 2562
246.64999 120.37 -417.53 2563
246.89999 122.08 -417.85001 2564
244.47 124.3 -418.09 2565
245.09 126.24 -418.79999 2566
246.95 124.2 -418.35999 2567
246.61 126.09 -418.94 2568
240.45 127.99 -419.07001 2569
240.61 130.31 -420.29999 2570
243.25 129.3 -419.98001 2571
243.25 128.97 -419.81 2571
242.92 129.03 -419.79999 2571
242.63 129.22 -419.85999 2571
242.17 129.03999 -419.70999 2571
242.85001 128.69 -419.62 2571
242.36 128.78 -419.60999 2571
243.44 128.78 -419.73001 2571
242.98 128.86 -419.70999 2571
242.62 128.92999 -419.70999 2571
242.57001 128.05 -419.28 2572
242.47 129.92999 -420.25 2573
240.92999 132.69 -422.12 2574
240.67 134.58 -424.22 2575
240.66 134.75 -424.45001 2575
240.42 134.63 -424.29999 2575
240.32001 134.75999 -424.47 2575
240.17 134.60001 -424.26999 2575
240.71001 134.39 -423.98001 2575
240.32001 134.48 -424.10001 2575
240.14 134.89999 -424.67001 2575
240.89999 133.53 -422.95001 2576
242.50999 132.42999 -422 2577
244.33 135.41 -425.16 2578
244.06 135.45 -425.17001 2578
244.46001 135.24001 -425.07001 2578
244.22 135.19 -425.01999 2578
244.33 135.3 -425.10001 2578
244.10001 135.3 -425.07999 2578
244.11 134.94 -424.78 2578
243.78 135.81 -425.28 2578
243.65001 135.82668 -425.26999 2578
243.82001 135.73 -425.26999 2578
243.61499 135.675 -425.23999 2578
243.73 135.5 -425.17001 2578
243.49001 135.75999 -425.25 2578
243.22501 135.88 -425.245 2578
243.42001 135.465 -425.14001 2578
243.25999 135.67999 -425.22 2578
243.11 135.39 -425.07999 2578
242.82001 135.53 -425.16 2578
242.69 135.72 -425.20999 2578
242.02 135.73 -425.17001 2578
242.08 135.50999 -425.14001 2578
241.67 136.14 -425.06 2578
241.66 135.855 -425.11499 2578
241.50999 135.63 -425.13 2578
242.86 134.62 -424.29999 2578
242.56 134.55 -424.19 2578
243.64 135.02 -424.82001 2578
243.78999 135.34 -425.07999 2578
243.92 135.14999 -424.95999 2578
243.82001 134.78 -424.57999 2578
243.30499 135.04001 -424.81 2578
243.46001 135.24001 -424.98999 2578
243.34 134.77 -424.53 2578
242.98001 135.035 -424.78497 2578
243.00999 135.24001 -424.98001 2578
242.92999 134.8 -424.51999 2578
242.64499 135.04001 -424.78 2578
242.35001 135.11 -424.84 2578
242.645 135.285 -424.995 2578
242.38 135.22 -424.94 2578
242.57001 134.8 -424.51001 2578
242.25 134.78 -424.45999 2578
241.89 134.78 -424.45999 2578
241.63 134.58 -424.20001 2578
242.10001 135.19 -424.92001 2578
241.87 135.23 -424.95502 2578
241.53 135.08 -424.81 2578
241.41 135.19 -424.94 2578
242.50999 133.74001 -423.25 2579
240.92 131.55 -421.17999 2580
240.58 131.23 -420.92001 2580
242.25 131.25999 -421.07999 2581
245 128.33 -419.67999 2582
245 127.72 -419.39001 2583
244.28999 130.73 -420.92001 2584
243.94 129.96001 -420.44 2584
244.5 129.98 -420.5 2584
244.23 130.25999 -420.64001 2584
244.07001 130.49001 -420.76001 2584
246.69 128.62 -419.98999 2585
246.45 127.56 -419.48999 2586
246.17 127.84 -419.57999 2586
246.13 128.14999 -419.70999 2586
246.39999 130.06 -420.72 2587
245.17 132.36 -422.20999 2588
245.03999 132.67999 -422.47 2588
244.88 135.67999 -425.32001 2589
244.565 135.42 -425.19 2589
244.38 135.53999 -425.23001 2589
244.03999 135.62 -425.23999 2589
244.50999 135.69 -425.29999 2589
245.08 134.56 -424.42001 2589
244.88 134.3 -424.10999 2589
244.17 134.56 -424.37 2589
244.59 134.53 -424.35999 2589
244.92999 134.99001 -424.88 2589
244.86 135.17 -425.04001 2589
244.78 134.75 -424.62 2589
244.38 134.99001 -424.85999 2589
244.58 135.16 -425.01001 2589
244.73 135.28999 -425.12 2589
244.62 135.05 -424.92001 2589
244.405 135.10501 -424.95999 2589
244.53999 134.91 -424.78 2589
244.23 135.07001 -424.92001 2589
244.33 134.73 -424.57999 2589
244.74001 133.44 -423.14001 2590
246.50999 132.67999 -422.63 2591
246.62 132.34 -422.35999 2591
246.39 132.5 -422.47 2591
246.28 132.92 -422.82001 2591
246.03999 132.64 -422.54999 2591
245.97 132.39 -422.32999 2591
246.61 134.37 -424.25 2592
246.78999 133.27 -423.17999 2593
244.74001 131.7 -421.64001 2594
244.71001 131.39 -421.42001 2594
246.56 131.14 -421.44 2595
248.94 119.98 -417.76001 2596
248.45 121.96 -418 2597
248.53999 122.34 -418.09 2597
250.89 119.95 -417.98999 2598
250.82001 122.72 -418.41 2599
250.59 122.9 -418.42001 2599
250.57001 122.47 -418.32999 2599
249.03 123.92 -418.51999 2600
248.33 125.92 -419.10001 2601
250.75 124.09 -418.75 2602
251.09 126.47 -419.63 2603
250.81 125.89 -419.38 2604
253.09 120.04 -418.25 2605
252.5 122.3 -418.53 2606
254.58 120.22 -418.44 2607
254.57001 121.81 -418.67001 2608
252.83 123.71 -418.92001 2609
254.63 123.72 -419.16 2610
248.59 130.78999 -421.44 2611
250.52 130.64999 -421.60999 2612
248.31 128.02 -419.89999 2613
248.53 129.78 -420.79999 2614
251.08 128.28999 -420.35999 2615
250.95 129.81 -421.14999 2616
248.61 132.49001 -422.67999 2617
248.56 132.28999 -422.51001 2617
248.56 132.03 -422.31 2617
249.03 134.23 -424.20001 2618
248.85001 133.47 -423.54001 2619
251.12 132.12 -422.69 2620
250.92 134.32001 -424.25 2621
253 130.36 -421.72 2622
254.82001 130.28999 -421.82999 2623
252.64999 128.09 -420.48999 2624
252.64999 129.47 -421.19 2625
254.39 128.08 -420.70999 2626
254.48 129.67 -421.48999 2627
252.62 132.14 -422.76999 2628
252.41 134.25 -424.19 2629
252.89 133.63 -423.76999 2630
254.25999 131.91 -422.70001 2631
255.25999 134.42 -424.39999 2632
254.95 133.2 -423.54001 2633
257.04001 104.02 -419.54999 2634
256.5 104.38 -419.37 2635
256.70999 105.97 -418.98999 2636
258.82999 103.95 -419.76001 2637
258.42999 104.47 -419.57001 2638
258.88 106.08 -419.23999 2639
256.82999 108.23 -418.60999 2640
256.92999 110.28 -418.47 2641
258.54001 107.74 -418.91 2642
258.85001 110.01 -418.73001 2643
261.06 103.86 -420.07001 2644
261.01999 105.94 -419.54001 2645
261.03 105.62 -419.60999 2645
260.44 106.02 -419.44 2646
262.5 104.05 -420.20999 2647
262.35001 105.79 -419.76999 2648
262.32001 106.14 -419.70001 2648
260.70999 107.9 -419.17999 2649
260.57999 110.56 -418.95999 2650
262.64999 107.9 -419.45999 2651
262.64999 107.9 -419.45999 2652
262.53 109.79 -419.26999 2653
256.29999 112.19 -418.35001 2654
256.54001 114.1 -418.41 2655
258.28 111.83 -418.60999 2656
258.57999 113.64 -418.67001 2657
258.54999 116.44 -418.67999 2658
258.85999 117.9 -418.79999 2659
262.76001 111.93 -419.23999 2660
262.79001 114.05 -419.29999 2661
260.34 116.14 -418.95999 2662
260.20999 118.21 -419.03 2663
262.91 116.11 -419.37 2664
262.98001 117.68 -419.42999 2665
264.89999 104.1 -420.54001 2666
264.63 105.97 -420.07001 2667
266.92001 104.24 -420.81 2668
266.85001 105.98 -420.39999 2669
264.85001 108.25 -419.76001 2670
264.23999 108.21 -419.67001 2671
266.44 107.82 -420.06 2672
269.14001 103.69 -421.32999 2673
270.82999 103.48 -421.70999 2674
269.06 104.28 -421.14001 2675
268.62 105.84 -420.70999 2676
270.67001 104.41 -421.42001 2677
270.91 106.23 -421.01001 2678
268.45999 107.87 -420.37 2679
268.69 109.88 -420.23001 2680
270.60999 108.23 -420.66 2681
270.88 110.21 -420.56 2682
265.14001 112.09 -419.60999 2683
264.20001 112.18 -419.45999 2684
264.64999 114.1 -419.59 2685
264.64999 114.1 -419.59 2686
267.17001 111.77 -419.94 2687
267.01001 114.08 -419.95999 2688
264.94 115.91 -419.67999 2689
264.35999 116.16 -419.59 2690
267.07999 118.03 -420.14001 2691
268.60999 114.06 -420.20999 2692
268.35999 113.83 -420.17001 2692
270.98001 112.05 -420.54999 2693
270.67001 114.38 -420.56 2694
268.48001 115.87 -420.23999 2695
269.20999 118.06 -420.45001 2696
270.82999 115.82 -420.60999 2697
270.91 118.39 -420.76001 2698
256.75 119.89 -418.67999 2699
256.38 121.62 -418.87 2700
258.76001 120.19 -418.98001 2701
258.34 121.9 -419.20001 2702
256.64999 124.66 -419.70001 2703
256.41 123.84 -419.42001 2704
256.79999 126.36 -420.29999 2705
258.91 124.18 -419.85001 2706
258.62 123.82 -419.70999 2707
258.78 126.27 -420.48999 2708
260.76001 120.12 -419.29999 2709
263.19 119.94 -419.67001 2710
262.26999 119.78 -419.51001 2711
263.13 122.09 -419.92999 2712
260.44 124.21 -420.03 2713
260.54001 126.02 -420.57001 2714
262.53 123.9 -420.19 2715
262.54001 125.87 -420.72 2716
256.45999 130.28999 -421.94 2717
259.16 130.19 -422.07001 2718
256.62 128.03 -420.91 2719
256.89001 129.71001 -421.67999 2720
258.56 128.03999 -421.10001 2721
258.20999 129.63 -421.73999 2722
256.84 132.55 -423.23001 2723
256.57001 132.11 -422.95001 2724
256.53 134.08 -424.23001 2725
258.73999 132.96001 -423.63 2726
258.57999 132.05 -423.04999 2727
258.84 133.92 -424.26001 2728
260.82999 128.53999 -421.51999 2729
260.64999 130.03999 -422.14001 2730
262.51999 128.25 -421.60001 2731
263.14999 129.97 -422.42999 2732
260.95001 128.03 -421.34 2733
262.57001 127.56 -421.34 2734
260.81 132.45 -423.54001 2735
260.82001 131.57001 -422.98999 2736
260.79001 134.02 -424.57001 2737
262.54001 132.82001 -423.98999 2738
262.41 131.8 -423.32999 2739
262.39001 133.83 -424.64001 2740
264.62 119.82 -419.88 2741
264.95999 122.58 -420.26999 2742
266.62 120.22 -420.23001 2743
266.60001 122.3 -420.48001 2744
266.59 126.36 -421.45001 2745
264.39999 124.12 -420.48001 2746
264.78 126.3 -421.17999 2747
266.85001 123.96 -420.81 2748
266.57001 125.74 -421.25 2749
268.31 120.24 -420.51001 2750
268.84 122.04 -420.79999 2751
270.29001 120.22 -420.82999 2752
270.56 122.34 -421.13 2753
268.82999 126.42 -421.81 2754
270.54999 124.2 -421.48001 2755
270.41 125.87 -421.89999 2756
268.41 123.88 -421.03 2757
268.64001 125.95 -421.63 2758
264.57999 134.92 -425.75 2760
266.85001 134.94 -426.07001 2761
268.78 134.67999 -426.17001 2762
270.56 134.22 -426.13 2763
264.67999 127.97 -421.76001 2764
264.67999 130.21001 -422.75 2765
266.62 130.17999 -423.01999 2766
264.64999 127.38 -421.54001 2767
264.48999 132.17999 -423.82999 2768
264.37 131.45 -423.38 2769
264.34 133.92999 -424.98001 2770
266.62 132.34 -424.20999 2771
266.70999 131.25999 -423.57999 2772
269 127.94 -422.39001 2773
268.59 130.64999 -423.54001 2774
268.60999 129.83 -423.14001 2775
270.62 128.12 -422.73001 2776
270.98001 130.33 -423.75 2777
270.57999 129.50999 -423.29999 2778
269.10001 132.14 -424.44 2779
268.39001 133.67999 -425.37 2780
270.89999 131.91 -424.59 2781
270.48999 133.39999 -425.51999 2782
209.3 136.72 -433.54999 2783
211.64999 138.62 -433.97 2784
211.44 138.58 -433.94 2784
211.86 138.7 -434.32001 2784
211.66 138.67 -434.25 2784
211.75 138.81 -434.75 2784
211.75 138.74001 -434.53 2784
211.46001 138.64 -434.22 2784
211.25999 138.60001 -434.25 2784
211.17 138.42 -433.76999 2784
210.92999 138.17999 -433.56 2784
210.98 138.36 -433.98999 2784
210.82001 138.07001 -433.48001 2784
210.73 138.21001 -434.04001 2784
210.59 137.92 -433.44 2784
210.64999 138.07001 -433.75 2784
210.34 137.73 -433.31 2784
211 138.46001 -434.25 2784
210.74249 138.25999 -434.19501 2784
213.10001 139.03999 -435.59 2785
213.17999 139.44 -436.39999 2785
212.75 139.36 -436.23999 2785
212.83 139.19 -435.87 2785
212.75 139.25999 -436.04001 2785
213.11 139.28 -436.09 2785
213.88 138.57001 -434.06 2786
213.45 138.60001 -434.04999 2786
213 138.56 -433.78 2786
213.06 138.63 -434.07999 2786
212.59 138.60001 -433.82001 2786
212 138.57001 -433.54999 2786
212.17999 138.61 -433.79001 2786
212.32001 138.64 -434.01001 2786
212.03 138.64999 -434.04001 2786
213.46001 138.64999 -434.28 2786
213.27 138.67 -434.35001 2786
213.53 138.7 -434.57001 2786
213.21001 138.71001 -434.57001 2786
212.95 138.69 -434.38 2786
214.47 138.09 -433.32001 2786
214.16 138.05 -433.23001 2786
214.31 137.87 -433.04999 2786
214 137.89 -433.04001 2786
213.75 138.21001 -433.26999 2786
213.5975 138.2225 -433.24249 2786
213.83 138.105 -433.20001 2786
214.24001 138.21001 -433.44 2786
214.28 138.34 -433.66 2786
213.97 138.39999 -433.67001 2786
213.95 138.17999 -433.32001 2786
213.97 138.3 -433.48999 2786
213.67999 138.39 -433.56 2786
213.7 138.31 -433.39999 2786
213.78999 138.48 -433.78 2786
213.44 138.205 -433.17999 2786
213.42 138.39 -433.45999 2786
213.435 138.44501 -433.59003 2786
213.44 138.35001 -433.37 2786
213.14 138.42 -433.42999 2786
213.21001 138.46001 -433.54999 2786
213.39 138.52 -433.76001 2786
213.02499 138.42 -433.39001 2786
212.79999 138.45 -433.39999 2786
212.56 138.48 -433.39001 2786
212.67 138.52 -433.56 2786
212.35001 138.55 -433.54999 2786
212.27 138.48 -433.29001 2786
211.64999 138.56 -433.66 2786
211.87 138.62 -433.82999 2786
211.8 138.64999 -434.07001 2786
211.78 138.47 -433.29999 2786
216.28999 138.73 -435 2787
216.13 138.78 -435.28 2787
216.07001 138.82001 -435.47 2787
215.815 138.88 -435.60999 2787
215.69 138.78999 -435.31 2787
215.24001 138.77 -435.17001 2787
215.39 138.84 -435.42001 2787
215.34 138.92 -435.62 2787
215.00999 138.8 -435.26001 2787
214.95 138.72 -434.91 2787
214.84749 138.7825 -435.18503 2787
215.02 138.85001 -435.39999 2787
214.92 138.91 -435.54999 2787
214.73 138.82001 -435.29999 2787
214.47 138.88 -435.42001 2787
216.07001 138.97 -435.91 2787
216.03999 139.10001 -436.16 2787
216.23 138.92999 -435.82001 2787
215.42999 139.39999 -436.48001 2787
215.81 139.39 -436.59 2787
215.88 139.47 -436.82001 2787
215.55 139.46001 -436.73999 2787
215.89999 139.02 -435.97 2787
215.71001 139.10001 -436.04999 2787
215.89999 139.19 -436.25 2787
215.67999 139.3 -436.35001 2787
215.71001 138.95 -435.78 2787
215.53 139.00999 -435.85001 2787
215.37 139.11 -435.95999 2787
215.24001 139.21001 -436.07999 2787
215.17 139.00999 -435.78 2787
215.53 139.2 -436.14999 2787
215.31 139.31 -436.25 2787
215.03999 139.14 -435.94 2787
214.8 139.03 -435.75 2787
214.95 139.28 -436.14999 2787
214.73 139.17 -435.95999 2787
214.49001 139.21001 -436 2787
214.42 139.07001 -435.78 2787
213.99001 139.37 -436.25 2787
214.27 139.17999 -435.94 2787
213.97 139.24001 -436.01999 2787
213.99001 139.09 -435.78 2787
214.31 139.28999 -436.10999 2787
214.5 138.62 -434.42001 2788
213.37 139.84 -437.91 2789
212.45001 139.88 -437.79001 2789
212.25 139.88 -437.75 2789
212.25 139.86 -438 2789
212.53 139.86 -438.10999 2789
212.48 139.8 -438.37 2789
212.38501 139.72 -438.57001 2789
212.38 139.63 -438.87 2789
212.25 139.82001 -438.25 2789
212.25 139.78999 -438.35001 2789
211.99001 139.75999 -438.25 2789
212.205 139.735 -438.44 2789
212.05 139.7 -438.45001 2789
212.08 139.64 -438.66 2789
213.25 139.85001 -439 2789
212.78 139.7 -438.98001 2789
212.58 139.64 -439.04999 2789
212.11 139.58 -438.98001 2789
211.81 139.715 -438.255 2789
211.75 139.58 -438.73999 2789
214.75 140.08 -438.75 2790
214.67999 139.50999 -436.91 2791
214.45 139.56 -437.09 2791
214.49001 139.53 -436.89001 2791
214.00999 139.56 -436.82001 2791
214 139.48 -436.51999 2791
214.2 139.59 -437.17001 2791
213.96001 139.62 -437.12 2791
213.60001 139.60001 -436.79999 2791
213.71001 139.66 -437.06 2791
213.55 139.73 -437.25 2791
214.35001 139.61 -437.39001 2791
213.99001 139.67999 -437.45001 2791
213.59 139.75999 -437.42999 2791
213.85001 139.75999 -437.79001 2791
213.61 139.8 -437.82999 2791
213.64 139.81 -438.035 2791
213.75 139.7 -437.31 2791
213.71001 139.75 -437.57001 2791
213.92 139.8 -438.09 2791
213.89999 139.87 -438.44 2791
213.69 139.83 -438.25 2791
213.75 139.89999 -438.75 2791
213.61 139.86 -438.54999 2791
213.39999 139.77 -437.26999 2791
213.24001 139.78 -437.22 2791
213.22 139.59 -436.70999 2791
213.45 139.71001 -437.09 2791
213.23 139.71001 -436.98001 2791
212.98 139.81 -437.17999 2791
212.75 139.81 -437.07999 2791
212.75 139.85001 -437.25 2791
212.75 139.64999 -436.73999 2791
212.94 139.72 -436.92999 2791
212.75 139.73 -436.91 2791
213.44 139.78999 -437.42001 2791
213.50999 139.8 -437.62 2791
213.3 139.81 -437.38 2791
213.3 139.84 -437.57999 2791
213.11 139.84 -437.42001 2791
212.78999 139.87 -437.41 2791
213.02 139.88 -437.73999 2791
212.78 139.88 -437.98001 2791
213.46001 139.85001 -438.28 2791
213.14999 139.86 -438.23001 2791
213.37 139.85001 -438.62 2791
213.25 139.82001 -438.75 2791
212.82001 139.85001 -438.31 2791
213 139.75999 -438.75 2791
212.75999 139.78999 -438.53 2791
212.63 139.89 -437.64999 2791
212.55 139.83 -438.26999 2791
212.66 139.82001 -438.37 2791
212.62 139.69501 -438.78 2791
213.5 139.87 -438.91 2791
212.97 139.75 -439 2791
215.19 139.46001 -436.67999 2792
215.26999 139.905 -438.16998 2792
215.02 139.39999 -436.41 2792
214.67999 139.39 -436.32999 2792
214.34 139.39 -436.31 2792
214.87 139.47 -436.67001 2792
214.72 139.45 -436.51001 2792
214.59 139.49001 -436.70999 2792
214.39 139.48 -436.54999 2792
214.67 139.55 -437.20001 2792
214.60001 139.3 -436.14001 2792
214.33 139.53 -436.79999 2792
214.245 139.565 -436.97501 2792
215.07001 139.77 -437.87 2792
214.78999 139.8 -438.01001 2792
215.06 139.64999 -437.56 2792
214.81 139.71001 -437.78 2792
214.64999 139.64 -437.56 2792
214.96001 139.92 -438.28 2792
216.85001 138.81 -435.29999 2793
216.57001 138.84 -435.54001 2793
218.67 139.19 -436.95999 2793
218.45001 139.25 -437.16498 2793
218.87 139.36 -437.54001 2793
218.62 139.28999 -437.32001 2793
218.52 139.31 -437.38 2793
217.55 139.38 -437.20999 2793
218.02 139.03 -436.29001 2793
217.56 139.03999 -436.32001 2793
218.10001 139.12 -436.67001 2793
218.17999 139.2 -436.98001 2793
218.04501 139.285 -437.185 2793
217.83 139.14999 -436.73001 2793
217.69501 139.19501 -436.83002 2793
217.81334 139.24001 -437 2793
217.58 139.22 -436.89999 2793
217.06 139.09 -436.39999 2793
216.88 138.99001 -436.10001 2793
216.82001 139.10001 -436.39001 2793
217.44 139.17 -436.70001 2793
217.42999 139.10001 -436.51999 2793
217.28999 139.2 -436.73999 2793
217.14999 139.14 -436.57001 2793
217.39 139.27 -436.95001 2793
217.02 139.16 -436.57999 2793
217.03 139.23 -436.73999 2793
217.08 139.35001 -437 2793
217.97 139.77 -437.89001 2793
218.24001 139.53 -437.66 2793
217.94 139.62 -437.67999 2793
218.16 139.64999 -437.79999 2793
217.91 139.47 -437.47 2793
217.71001 139.59 -437.57999 2793
217.53 139.64999 -437.60001 2793
217.52 139.53 -437.45001 2793
217.33 139.63 -437.53 2793
217.19 139.50999 -437.31 2793
217.42999 139.74001 -437.70999 2793
217.00999 139.7 -437.57999 2793
216.2 139.41 -436.79001 2793
216.12 139.53 -437.07999 2793
216.56 139.02 -436.12 2793
216.35001 139.07001 -436.19 2793
216.39 138.89 -435.70999 2793
216.28999 139.17 -436.38 2793
216.7 139.16 -436.48999 2793
216.59 139.28999 -436.70999 2793
216.09 139.28999 -436.5 2793
215.67999 139.53 -437.01999 2793
216.64 138.60001 -434.26999 2794
218.39999 139.03 -436.19 2795
218.91 138.89 -434.39999 2796
218.59 138.82001 -434.34 2796
216.74001 139.89999 -437.94 2797
216.75 140.03 -438.23999 2797
218.83667 139.25 -437.19333 2798
218.62 139.27 -437.25 2798
218.41 139.17 -436.91 2798
219.27 139.46001 -437.85001 2798
219.3 139.78 -438.38 2798
219.17 140 -438.64001 2798
219.37 139.34 -437.5 2798
219.03 139.59 -438 2798
218.38 139.39999 -437.51001 2798
218.62 139.64999 -437.95001 2798
218.67999 139.5 -437.76001 2798
218.39999 139.60001 -437.82001 2798
218.91 139.83 -438.29999 2798
219.09 139.7 -438.17001 2798
218.83 139.71001 -438.10001 2798
218.57001 139.99001 -438.42999 2798
218.56 139.8 -438.14001 2798
219.00999 139.28999 -437.32999 2798
218.76999 139.29001 -437.33499 2798
218.19 140.2 -438.67001 2798
218.25 140.246 -438.75 2798
217.95 140.16 -438.64999 2798
218 140.19 -438.75 2798
218.31 139.72 -437.95001 2798
217.83 139.92 -438.07001 2798
217.66 139.82001 -437.87 2798
217.7 139.7 -437.72 2798
218.22 139.88 -438.14001 2798
218.11 140.03 -438.32999 2798
218.32001 140.14999 -438.59 2798
218 140.12 -438.5 2798
217.67999 140.03 -438.26001 2798
217.75 140.14 -438.75 2798
217.705 140.11501 -438.565 2798
217.37 139.89 -437.94 2798
217.44 140.06 -438.37 2798
217.23001 140.015 -438.21002 2798
217.48 140.10001 -438.57999 2798
217.5 140.12 -438.75 2798
217.25 140.08 -438.48999 2798
217.25 140.12 -438.73999 2798
218.84 139.14 -436.66 2800
222.42 140.28 -439.92999 2802
221.85001 140.16 -439.60001 2802
221.98 140.705 -440.125 2802
222.14999 140.255 -439.79999 2802
222.31 140.49001 -440.10001 2802
221.75 140.75 -440.03 2802
221.75 140.55 -439.89001 2802
221.63 140.37 -439.73001 2802
221.86 139.95 -439.32999 2802
221.66 140.06 -439.42001 2802
221.465 140.255 -439.58002 2802
221.25 140.42999 -439.67001 2802
221.25 140.25999 -439.54001 2802
220.76001 140.205 -439.37 2802
221.45999 140.47 -439.73499 2802
221.46001 139.95 -439.20001 2802
221.2 139.87 -439.01999 2802
221.27 140.06 -439.32001 2802
221.08 139.95 -439.14001 2802
220.84 140.03999 -439.20001 2802
220.57001 139.25 -437.12 2803
220.19 139.23 -436.95001 2803
220.19 139.28 -437.26001 2803
221.32001 139.46001 -438.10999 2803
221 139.77 -438.84 2803
220.8 139.81 -438.88 2803
221.05 139.57001 -438.41 2803
221.09 139.7 -438.67999 2803
220.87 139.64999 -438.59 2803
220.77 139.73 -438.73001 2803
220.47 139.36 -437.73999 2803
220.44 139.42 -437.98999 2803
220.13 139.39 -437.81 2803
220.61665 139.78334 -438.80997 2803
220.42499 139.785 -438.78 2803
220.63 139.52 -438.29001 2803
220.63 139.64 -438.56 2803
220.63 139.72 -438.70001 2803
220.47 139.69 -438.63 2803
220.32001 139.85001 -438.85999 2803
220.07001 139.83499 -438.755 2803
220.33 139.59 -438.39999 2803
220.22 139.47 -438.10999 2803
220 139.63 -438.39999 2803
219.98 139.53 -438.20999 2803
220.22 139.69 -438.57001 2803
220.53 139.3 -437.44 2803
220.14999 139.33 -437.53 2803
219.92 139.25999 -437.10999 2803
219.61 139.27 -437.14999 2803
219.78 139.42999 -437.89001 2803
219.64999 139.50999 -438.07001 2803
219.7 139.84 -438.63 2803
219.73 139.59 -438.25 2803
219.655 139.705 -438.39999 2803
219.91 139.72 -438.53 2803
219.44 139.62 -438.18997 2803
219.45999 139.70001 -438.315 2803
219.28 139.66501 -438.19 2803
219.91 139.31 -437.34 2803
219.81 139.35001 -437.56 2803
221.05 140.205 -439.44 2803
220.495 140.22501 -439.315 2803
220.20999 140.245 -439.255 2803
220.97 139.86 -438.98999 2803
220.75999 139.89999 -439.01001 2803
220.53999 139.86 -438.92001 2803
220.45 140.10001 -439.17001 2803
220.50999 139.95 -439.01999 2803
220.2 139.99001 -438.98001 2803
220.09 140.14 -439.10999 2803
219.75 140.38 -439.26001 2803
219.71001 140.25999 -439.12 2803
219.74001 140.05 -438.89999 2803
224.11 140.27 -440.38 2804
223.87 140.28999 -440.35999 2804
223.50999 140.39 -440.42001 2804
224.44 140.42 -440.70001 2804
224.25 140.81 -441.25 2804
224.27 140.61 -440.95999 2804
224.11 140.77 -441.14001 2804
224 140.46001 -440.64999 2804
223.75 140.58 -440.75 2804
223.75 140.92 -441.25 2804
223.75 140.75 -441.01999 2804
223.28 139.85001 -439.60001 2804
223.44 140.06 -439.97 2804
222.67999 140.50999 -440.29001 2804
222.75 140.75 -440.59 2804
222.94 139.78999 -439.48999 2804
223.08 140.10001 -439.95999 2804
222.61 140 -439.70001 2804
225.99001 139.96001 -439.32001 2805
225.85001 139.98 -439.53 2805
225.64 139.92 -439.29001 2805
226.12 140.03999 -439.76001 2805
225.48 139.95 -439.51999 2805
225.17999 139.85001 -439.31 2805
225.03 139.75999 -439.10001 2805
224.84 139.83 -439.32999 2805
224.23 139.58 -438.29999 2805
223.94 139.57001 -438.39001 2805
224.11 139.60001 -438.64999 2805
223.85001 139.63 -438.82999 2805
223.53 139.57001 -438.57001 2805
223.41 139.62 -438.87 2805
222.97 139.50999 -438.31 2805
223.05 139.57001 -438.67999 2805
222.78999 139.57001 -438.76001 2805
222.61 139.58 -438.785 2805
222.67 139.53 -438.51999 2805
222.39999 139.59 -438.76999 2805
222.22501 139.63 -438.80499 2805
221.97 139.69 -438.85999 2805
221.8 139.58 -438.51001 2805
221.66 139.74001 -438.84 2805
223.77 140.38 -440.47 2805
223.63 140.22 -440.23001 2805
223.35001 140.16 -440.10001 2805
223.22 140.32001 -440.26001 2805
224.59 139.92 -439.57999 2805
224.46001 139.81 -439.32001 2805
224.16 139.87 -439.5 2805
224.12 139.78999 -439.29001 2805
224.3 139.73 -439.10999 2805
224.00999 139.69 -439.01001 2805
224.03 139.73 -439.14999 2805
224.22 139.99001 -439.79999 2805
224.03999 140.10001 -440.07001 2805
223.83 139.75999 -439.25 2805
223.84 139.81 -439.39999 2805
223.78999 139.87 -439.56 2805
223.61 139.785 -439.38 2805
223.75999 139.7 -439.10999 2805
223.69 139.66 -438.98001 2805
223.44 139.81 -439.5 2805
223.42999 139.66 -439.06 2805
223.53 139.72 -439.20999 2805
223.19 139.67999 -439.17999 2805
223.39 139.74001 -439.34 2805
223.55 139.99001 -439.85999 2805
223.67999 139.92999 -439.73001 2805
223.77 140.14 -440.13 2805
223.19 139.91 -439.70999 2805
223 140.2 -440.06 2805
223.02 140.42999 -440.32999 2805
222.72 140.2 -439.97 2805
221.72 140.27 -439.67001 2805
222.2 140.71333 -440.25333 2805
222.25 140.75 -440.35999 2805
222.03 140.48 -439.97 2805
221.97 140.25 -439.73001 2805
221.82001 140.34 -439.77002 2805
222.87 139.87 -439.60001 2805
223.03 139.61 -438.95001 2805
222.81 139.64999 -439.12 2805
223.09 139.73 -439.35999 2805
222.60001 139.78 -439.38 2805
222.57001 139.88 -439.53 2805
222.53999 139.67999 -439.14001 2805
222.42999 139.66 -439 2805
222.42334 139.72667 -439.20999 2805
222.73 139.71001 -439.29001 2805
223.13 139.99001 -439.82999 2805
222.86 140.01501 -439.79999 2805
222.38 140.09 -439.70999 2805
222.17999 139.75999 -439.14999 2805
222.03 139.75999 -439.04999 2805
222.03 139.84 -439.20999 2805
222.29001 139.88 -439.39999 2805
222.03 140.06 -439.54001 2805
222.215 139.7 -439.005 2805
222.11 139.72 -439 2805
221.88 139.78 -439.01001 2805
221.73 139.86 -439.10999 2805
221.23 139.78 -438.85001 2805
221.41 139.63 -438.54999 2805
221.39999 139.75 -438.79999 2805
221.24001 139.69 -438.67001 2805
221.24001 140.63 -439.76999 2805
221.45 139.84 -438.98999 2805
220.56 139.21001 -436.75 2806
220.84 139.39 -434.32999 2807
222.72 139.41 -436.67001 2808
222.63 139.86 -434.42999 2809
210.24666 136.31334 -431.99332 2810
210.04001 136.185 -431.785 2810
209.85001 136.17999 -432.04001 2810
209.91 136.32001 -432.23999 2810
209.67999 136.17 -432.23001 2810
209.67999 136.28999 -432.42001 2810
209.71001 136.07001 -431.10999 2810
209.75999 136.08 -431.62 2810
209.55 136.00999 -431.45999 2810
209.75999 136.11 -431.87 2810
209.64999 136.12 -432.07001 2810
209.37 136.02 -431.01999 2810
209.38 135.98 -431.32999 2810
209.14 135.91 -431.62 2810
208.89999 135.96001 -431.01999 2810
208.75 135.89999 -431.25 2810
209.06 135.92999 -431.35001 2810
209.45999 136.03 -431.97501 2810
209.28999 135.95 -431.76999 2810
209.47 136.08 -432.25 2810
209.48 136.14999 -432.45999 2810
209.25 135.98001 -432.16998 2810
209.08 135.91 -432.03 2810
208.75 135.83 -431.75 2810
208.75 135.82001 -432 2810
209 135.89999 -432.25 2810
208.75 135.83 -432.25 2810
209.58 136.60001 -432.85999 2810
209.5 136.27 -432.63 2810
209.25 136.05 -432.5 2810
209.25 136.11 -432.75 2810
208.63 135.98 -430.64001 2811
211.61 136.71001 -432.32001 2812
211.36 136.77 -432.39999 2812
211.25999 136.58 -432.17001 2812
211.32001 136.64999 -432.29999 2812
211.5 136.53999 -431.91 2812
211.19 136.52 -432.01001 2812
211.03999 136.39 -431.57001 2812
210.48 136.25 -431.12 2812
210.60001 136.3 -431.5 2812
211.00999 136.78 -432.42001 2812
211.03 136.57001 -432.23999 2812
211.10001 136.67 -432.35001 2812
210.77 136.57001 -432.29001 2812
211.13 136.46001 -431.81 2812
210.77 136.38 -431.73001 2812
210.88 136.45 -431.94 2812
211 136.50999 -432.10001 2812
210.63 136.71001 -432.39999 2812
210.49001 136.88 -432.48001 2812
210.61 136.37 -431.88 2812
210.45 136.36 -431.95001 2812
210.45999 136.31 -431.75 2812
210.73 136.46001 -432.09 2812
210.45499 136.455 -432.17999 2812
210.21001 136.19 -431.47 2812
210.33 136.25 -431.64001 2812
210.17999 136.75999 -432.42999 2812
210.21999 136.25334 -431.79666 2812
210.06 136.25999 -432.04001 2812
210.17 136.39999 -432.20001 2812
209.98 136.12 -431.26999 2812
211.22 137.91 -432.89001 2812
211.77 137.28999 -432.60001 2812
211.75999 137.03999 -432.51001 2812
211.38 137.42999 -432.64999 2812
211.39 137.19 -432.57999 2812
211.31 136.96001 -432.48999 2812
211.10001 137.72 -432.78 2812
210.99001 137.44 -432.67999 2812
210.86 137.60001 -432.75 2812
211.01999 137.25999 -432.62 2812
211.06 137.14 -432.57001 2812
210.85501 137.22 -432.60999 2812
210.85001 136.97 -432.51001 2812
210.7 137.36 -432.66 2812
210.41 137.53 -432.84 2812
210.42999 137.64999 -433.04001 2812
210.67 137.14 -432.59 2812
210.285 137.66 -433.22998 2812
210.58 136.28 -430.59 2813
210.32001 136.61 -432.35001 2814
209.98 136.67 -432.42999 2814
209.99249 136.54251 -432.35248 2814
209.88 136.49333 -432.37668 2814
211.64999 138.28999 -433.04001 2814
211.41501 138.28 -433.16 2814
211.26501 138.075 -433.03497 2814
211.25 138.14999 -433.14001 2814
211.47 138.45 -433.45001 2814
211.25 138.39 -433.56 2814
211.25 138.27 -433.32501 2814
211.37 138.5 -433.70001 2814
211.21001 138.49001 -433.97 2814
211.255 137.655 -432.72498 2814
211.02499 137.80499 -432.86499 2814
211.07001 138.06 -433.16 2814
210.85001 138 -433.28 2814
210.88 137.89999 -433.06 2814
210.64999 137.84 -433.16 2814
210.46001 137.77 -433.26001 2814
211.12 138.27 -433.47 2814
210.99001 138.28 -433.73001 2814
211.00999 138.14999 -433.38 2814
210.39 137.8 -433.44 2814
210.53999 137.46001 -432.73001 2814
210.67 137.71001 -432.91 2814
210.41 137.14 -432.59 2814
210.25 137.39999 -432.82001 2814
210.21666 137.45332 -432.96335 2814
210.05 137.48 -433.25 2814
210.28999 137.31 -432.70001 2814
210.11 137.22 -432.75 2814
210.09 136.98 -432.57999 2814
210.01999 137.265 -432.97501 2814
209.87 136.985 -432.79498 2814
209.89999 137.19 -433.04999 2814
209.79333 137.20667 -433.25 2814
209.855 137.08499 -432.97 2814
210.25999 137.74001 -433.44 2814
209.75 136.78 -432.73999 2814
209.86 136.7 -432.53 2814
209.67 136.86 -433 2814
209.67 136.49001 -432.60999 2814
209.45999 136.685 -433.19501 2814
209.49001 136.38 -432.79001 2814
209.38 136.24001 -432.79999 2814
209.39 136.42999 -433.01001 2814
209.34 136.28999 -432.95001 2814
209.255 136.20999 -432.98999 2814
209.235 136.32501 -433.19501 2814
208.55 136 -428.60001 2815
208.81 135.64999 -426.66 2816
210.92999 136.37 -428.37 2817
210.64 135.89 -426.56 2818
210.34 135.92999 -426.82001 2818
214.45 137.19 -431.14001 2819
214.41 137.2 -431.53 2819
214.7 137.41 -432.01999 2819
214.465 137.255 -431.79999 2819
214.24001 137.12 -431.44 2819
214.24001 137.14 -431.63 2819
214.04001 137.065 -431.54999 2819
213.72 136.98 -431.03 2819
213.85001 137 -431.34 2819
214.285 137.16998 -431.73752 2819
214.255 137.19501 -431.92001 2819
214.095 137.11501 -431.80499 2819
214.21001 137.22 -432.10001 2819
214.00999 137.27 -432.42999 2819
213.87 137.06 -431.97501 2819
213.88 137.14 -432.26001 2819
213.63 136.94 -431.35001 2819
213.60001 136.95 -431.84 2819
213.5 136.96001 -430.57001 2819
213.39 137.07001 -432.45999 2819
213.00999 136.96001 -432.41 2819
213.31 136.89 -430.88 2819
212.96001 136.83 -430.60999 2819
213.02 136.82001 -430.88 2819
212.77 136.75999 -430.85001 2819
213.39999 136.88 -431.20001 2819
213.14999 136.83 -431.04999 2819
213.38 136.87 -431.54001 2819
212.89 136.77 -431.07001 2819
213.10001 136.8 -431.29999 2819
213.03 136.78 -431.57999 2819
212.75 136.72 -431.35999 2819
212.8 136.72 -431.64001 2819
213.17999 136.83 -431.85001 2819
213.19 136.91 -432.28 2819
212.94 136.75999 -431.76999 2819
213.03 136.81 -432.07001 2819
212.81 136.73 -431.79001 2819
212.89999 136.75 -431.89999 2819
212.78 136.81 -432.22 2819
212.53999 136.67 -431.54999 2819
212.31 136.62 -431.29999 2819
212.17 136.59 -431.53 2819
212.67 136.7 -431.78 2819
212.72 136.73 -432 2819
212.42999 136.64999 -431.70999 2819
212.36 136.66 -431.89001 2819
212.59 136.95 -432.42999 2819
212.42999 136.78999 -432.26001 2819
212.48 136.72 -432.09 2819
212.17 136.67 -432.03 2819
212.03 136.58 -431.70001 2819
212.23999 136.735 -432.21002 2819
212.13 136.87 -432.39999 2819
212.05 136.69 -432.16 2819
213.78999 137.24001 -432.53 2819
213.27 137.14 -432.57001 2819
212.86 137.47 -432.73001 2819
212.94 137.10001 -432.54999 2819
212.09 138.03999 -432.87 2819
212.03999 137.86499 -432.78 2819
212.07001 138.14999 -432.92001 2819
212.59 137.46001 -432.70001 2819
212.39 137.36 -432.64999 2819
212.44 137.5 -432.70001 2819
212.64999 137.23 -432.60999 2819
212.32001 137.49001 -432.67999 2819
212.03999 137.62 -432.70001 2819
212.21001 137.14999 -432.54999 2819
211.84 136.52 -431.32001 2819
211.78 136.52 -431.53 2819
211.89999 136.59 -431.87 2819
211.82001 136.62 -432.04001 2819
211.75 136.66 -432.19 2819
211.92999 136.74001 -432.29999 2819
211.7 136.84 -432.42001 2819
211.5 136.61499 -432.155 2819
211.78 138.16 -432.91 2819
211.88 138.03 -432.84 2819
211.81 137.87 -432.76999 2819
211.60001 137.96001 -432.79999 2819
211.57001 137.78 -432.73001 2819
211.44 138.19 -433.03 2819
211.32001 138.25999 -433.22 2819
211.39 137.88 -432.79498 2819
211.25 137.81 -432.79001 2819
211.42499 138.07001 -432.92499 2819
211.5 137.63 -432.70001 2819
211.07001 137.92 -432.97 2819
212.46001 136.71001 -430.72 2820
212.53 136.69 -431.04001 2820
213.3 138.00999 -433.01001 2821
213.11 138.26001 -433.16501 2821
213.09 137.82001 -432.88 2821
212.87 138.10001 -432.98999 2821
212.97 138.49001 -433.56 2821
213.42999 137.435 -432.73499 2821
213.27 137.58 -432.78 2821
213.21001 137.25999 -432.66 2821
213.09 137.58 -432.78 2821
213.11 137.42 -432.72 2821
212.85001 137.73 -432.82001 2821
212.99001 137.28 -432.66 2821
212.73 138.41 -433.26999 2821
212.63 138.31 -433.10999 2821
212.42 138.17 -432.97 2821
212.63 137.82001 -432.82999 2821
212.44501 137.845 -432.82001 2821
212.66 137.96001 -432.89999 2821
212.06 138.33 -433.04999 2821
212.22 137.97 -432.85001 2821
212.25 137.86 -432.79999 2821
212.3 138.05 -432.89999 2821
212.66 137.64999 -432.76999 2821
212.42499 137.60001 -432.72498 2821
212.255 137.63501 -432.72 2821
212.11 137.42 -432.64999 2821
211.78999 137.7 -432.70999 2821
211.77 137.52 -432.66 2821
214.89999 137.39 -431.54001 2822
214.63 137.28 -431.48999 2822
214.67999 137.5 -432.32999 2822
214.39 137.45 -432.48001 2822
214.08 137.07001 -431.20001 2822
213.72 136.96001 -431.57001 2822
214.08 137.14 -431.98999 2822
213.89 137.03 -431.70999 2822
214.71001 137.75999 -432.82999 2822
214.86 137.71001 -432.66 2822
214.53999 137.67 -432.75 2822
214.47 137.57001 -432.63 2822
213.67 138.10001 -433.14999 2822
213.75999 138.25999 -433.34 2822
214.17 137.42 -432.59 2822
213.425 138.11499 -433.10498 2822
213.45 137.7 -432.85001 2822
213.21667 137.40666 -432.71667 2822
214.59 137.23 -430.63 2823
216.25 138.2 -433.03 2824
216.2 138.24001 -433.25 2824
216.13 138.17 -433.06 2824
216.3 138.14999 -432.75 2824
216.06 138.10001 -432.88 2824
215.99001 138.14 -433.09 2824
215.95 138.23 -433.39001 2824
215.78999 138.02 -432.85999 2824
215.89999 137.95 -432.48999 2824
215.53999 137.98 -432.94 2824
215.72 138.09 -433.14001 2824
215.5 137.89 -432.67001 2824
215.14999 137.78 -432.63 2824
215.41 138.06 -433.17999 2824
215.25999 137.92 -432.91 2824
215.60001 138.21001 -433.45001 2824
215.22 138.2 -433.48001 2824
215.08 137.58 -432.10001 2824
214.97 137.64999 -432.42001 2824
214.3 137.33 -432.29999 2824
213.60001 137.07001 -432.35999 2824
213.45 136.94 -432.12 2824
214.95 137.85001 -432.88 2824
215.05 138.02 -433.17001 2824
214.69 137.92999 -433.09 2824
214.81 138.17999 -433.47 2824
214.5 138.25 -433.54999 2824
214.63 138.37 -433.76999 2824
214.67 137.625 -432.60999 2824
214.47 137.74001 -432.89001 2824
213.67 137.94 -433.01999 2824
214.255 137.61 -432.785 2824
214 137.44 -432.67999 2824
214.05 137.72 -432.92001 2824
213.78 137.69 -432.88 2824
213.88 137.52 -432.78 2824
213.63 137.28 -432.63 2824
215.02 137.35001 -430.57999 2825
212.67999 136.64999 -428.17999 2826
212.61 136.09 -426.34 2827
214.48 136.98 -428.10999 2828
214.50999 137.05 -428.42999 2828
214.16 136.96001 -428.29001 2828
213.98 136.99001 -428.62 2828
214.47 136.92 -427.79999 2828
214.14 136.89999 -428.03 2828
215.67 136.82001 -426.72 2829
215.465 136.815 -426.78 2829
215.39999 136.64999 -426.56 2829
215.23 136.78 -426.79001 2829
215.17999 136.69 -426.67001 2829
215.39999 136.31 -426.14001 2829
215.19 136.55 -426.48001 2829
215.28999 136.86 -426.95001 2829
215.27 136.94 -427.25 2829
215.00999 136.75999 -426.85001 2829
214.98 136.63 -426.64001 2829
215.03 136.71001 -426.75 2829
214.81 136.64999 -426.72 2829
214.83 136.47 -426.45999 2829
215.02 136.82001 -427 2829
214.74001 136.81 -427.16 2829
214.69 136.71001 -426.89001 2829
215 137.17 -428.54001 2830
208.64 135.11 -425.17001 2831
210.16 135.42999 -425.47 2832
210.71001 135.23 -424.89001 2832
210.46001 135.34 -425.20001 2832
212.52 135.56 -425.22 2833
214.38 135.42999 -424.79001 2834
216.72 138.3 -432.70001 2835
217.82001 138.62 -431.48999 2836
217.64 138.60001 -431.91 2836
217.62 137.99001 -429.91 2836
218.03 138.22 -430.22 2836
217.92 138.28 -430.45999 2836
217.82001 138.37 -430.76001 2836
217.57001 138.17 -430.56 2836
217.58 138.03 -430.17999 2836
217.72 138.14 -430.32001 2836
217.08 137.84 -430.04999 2836
217.37 138.17 -430.81 2836
217.41 138.03999 -430.41 2836
217.28 137.94 -430.25 2836
217.28 138.06 -430.63 2836
216.88 137.84 -430.44 2836
217.03 138 -430.82001 2836
217.09 137.95 -430.54999 2836
217.46001 138.32001 -431.07999 2836
217.32001 138.36 -431.37 2836
217.06 138.21001 -431.38 2836
217.06 138.10001 -431.07001 2836
216.74001 138.02 -431.35999 2836
217.41 138.49001 -431.73001 2836
217.28999 138.47 -432.07001 2836
217.13 138.34 -431.70999 2836
216.74001 138.13 -431.73001 2836
216.7 137.84 -430.81 2836
216.60001 137.74001 -430.31 2836
216.49001 137.74001 -430.66 2836
216.25999 137.66 -430.57001 2836
216.14999 137.64999 -430.85001 2836
216.73 137.92 -431.07001 2836
216.41 137.8 -431.17001 2836
216.5 137.88 -431.32001 2836
216.42 137.92999 -431.64001 2836
216.25 137.81 -431.47 2836
216.27 137.71001 -431.01999 2836
216.03 137.71001 -431.42001 2836
215.78 137.60001 -431.23001 2836
219.10001 139.10001 -432.89001 2837
219.05 139.03999 -433.20999 2837
218.74001 138.97 -432.89999 2837
218.42999 138.88 -432.72 2837
218.64999 138.89999 -433.19 2837
218.47 138.87 -432.95001 2837
218.38 138.82001 -433.10999 2837
218.48 138.82001 -433.45001 2837
218.03 138.74001 -432.81 2837
218.27 138.81 -432.91 2837
218.19 138.75999 -433.09 2837
218.08 138.72 -433.31 2837
219.81 138.56 -429.79001 2838
219.8 138.7 -430.03 2838
219.50999 138.58 -429.95001 2838
219.25999 138.60001 -430.07001 2838
219.44 138.87 -430.42001 2838
219.19 138.92999 -430.64001 2838
219.03 138.61 -430.20001 2838
218.83 138.81 -430.66 2838
218.62 138.67999 -430.59 2838
218.42 138.61 -430.64999 2838
218.52 138.73 -430.78 2838
220.07001 138.38 -429.17999 2838
220.03999 138.50999 -429.57999 2838
219.89 138.42 -429.42001 2838
219.53999 138.36 -429.47 2838
219.67999 138.44 -429.60999 2838
219.71001 138.35001 -429.32001 2838
219.37 138.39999 -429.66 2838
219.42999 138.31 -429.35001 2838
219.27 138.32001 -429.51001 2838
219.50999 138.48 -429.78 2838
219.28999 138.47 -429.85999 2838
219.10001 138.24001 -429.29001 2838
219.06 138.28 -429.5 2838
219.13 138.36 -429.70999 2838
219.06 138.47 -429.95001 2838
218.88 138.31 -429.72 2838
218.61 138.28 -429.87 2838
218.38 138.19 -429.76999 2838
218.45 138.25999 -429.97 2838
218.50999 138.50999 -430.41 2838
218.49001 138.35001 -430.13 2838
218.22 138.59 -430.81 2838
218.3 138.21001 -429.95001 2838
218.13 138.19 -430.04001 2838
218.03999 138.03999 -429.48999 2838
218.09 138.13 -429.87 2838
217.87 138.11 -430.07999 2838
218.28999 138.25999 -430.10999 2838
218.24001 138.35001 -430.32001 2838
218.19 138.46001 -430.57999 2838
216.99001 136.29001 -425.98001 2839
216.91 136.02 -425.64001 2839
216.64999 136.17 -425.85999 2839
216.72 136.32001 -426.01999 2839
216.48 136.38 -426.07999 2839
216.5 136.28999 -425.98999 2839
216.05 136.28999 -426.04001 2839
216.12 136.12 -425.82001 2839
217.21001 137 -426.5 2839
216.96001 137.2 -426.73001 2839
217.03 137.38 -427 2839
216.82001 137.285 -426.98499 2839
217.45 136.91 -426.41 2839
217.45 136.7 -426.29001 2839
217.22 136.81 -426.39001 2839
217.14 136.64999 -426.28 2839
216.97 136.84 -426.42999 2839
216.74001 136.64 -426.29999 2839
217.05 136.47 -426.14999 2839
216.67999 137.14999 -426.82999 2839
216.45 137.02 -426.73999 2839
216.595 137.2775 -427.155 2839
216.45 137.19 -427.06 2839
216.22 137.08 -427 2839
216.42 136.73 -426.42001 2839
216.69 136.87 -426.5 2839
216.7 136.42999 -426.13 2839
216.35001 136.53 -426.23999 2839
216.14 136.41 -426.14999 2839
216.78999 137.63 -428.63 2840
218.06 137.77 -427.14001 2841
218.02 137.8 -427.42001 2841
218 137.82001 -427.64999 2841
217.78999 137.69 -427.13 2841
217.83 137.75 -427.39001 2841
217.57001 137.67 -427.37 2841
217.69 137.75 -427.64001 2841
217.3 137.38 -426.79999 2841
217.27 137.21001 -426.63 2841
216.95 137.03999 -426.57999 2841
217.49001 137.58 -427.09 2841
217.50999 137.52 -426.92001 2841
217.39 137.66 -427.63 2841
217.23 137.57001 -427.38 2841
217.03 137.42999 -427.13 2841
217.10001 137.58 -427.62 2841
216.86 137.44 -427.34 2841
216.75 137.33 -427.13 2841
217.66 137.75999 -427.88 2841
216.7 137.03999 -426.66 2841
216.2 136.98 -426.81 2841
216.63 137.22 -426.98999 2841
216.44 137.11 -426.91 2841
216.33 137.2 -427.17999 2841
216.00999 137.09 -427.16 2841
216.27 137.25999 -427.42999 2841
215.63 136.96001 -427.07001 2841
215.75 137.10001 -427.42001 2841
216.45 136.89999 -426.57999 2841
216.04001 136.61499 -426.37 2841
216.23001 136.84 -426.58002 2841
216.03 136.77 -426.54999 2841
215.96001 136.86 -426.70001 2841
215.89 136.67 -426.45999 2841
215.67 136.64 -426.48001 2841
215.78 136.75 -426.59 2841
215.56 136.73 -426.62 2841
215.64999 136.49001 -426.31 2841
215.88 136.95 -426.89001 2841
220.52 136.58 -425.69 2842
220.03 136.56 -425.79001 2842
220.24001 135.88499 -425.20001 2842
220.21001 136.08 -425.41 2842
219.97 136.02 -425.39999 2842
220.00999 135.92999 -425.29001 2842
219.82001 136.87 -425.98999 2842
