# .PCD v0.7 - Point Cloud Data file format
VERSION 0.7
FIELDS x y z label
SIZE 4 4 4 4
TYPE F F F U
COUNT 1 1 1 1
WIDTH 1645
HEIGHT 1
VIEWPOINT 0 0 0 1 0 0 0
POINTS 1645
DATA ascii
165.72 134.99001 -423.66 452
166.35001 134.98 -423.64001 756
168.24001 134.94 -423.67999 758
218.67 134.89999 -423.67999 0
220.95 134.89999 -423.69 0
166.89999 135.05 -423.67999 756
205.11 93.779999 -423.57999 0
205.60001 93.760002 -423.60001 0
208.62 93.760002 -423.57001 0
203.81 93.839996 -423.51001 0
204.53999 93.809998 -423.53 0
209.67 93.809998 -423.53 0
226.5 93.889999 -423.54999 0
231.36 93.860001 -423.57999 0
233.91 93.809998 -423.57001 0
194.94 93.980003 -423.60001 0
196.27 93.959999 -423.60001 0
217.78999 93.940002 -423.51999 0
220.88 93.959999 -423.57001 0
237.61 93.919998 -423.51999 0
239.50999 93.949997 -423.51999 2114
242.32001 93.989998 -423.57001 0
191.03 94.089996 -423.57999 0
192.91 94.059998 -423.51999 0
193.78999 94.019997 -423.56 0
221.74001 94.010002 -423.51001 0
190.14 94.129997 -423.51999 0
245.5 94.190002 -423.60001 0
188.81 94.230003 -423.59 525
246.14 94.300003 -423.54001 0
246.81 94.349998 -423.53 0
247.49001 94.410004 -423.51999 0
249.85001 94.580002 -423.57001 0
178.00999 94.669998 -423.56 0
250.92 94.610001 -423.57999 0
252.66 94.75 -423.57999 0
173.87 94.82 -423.51001 0
253.39999 94.809998 -423.59 0
171.78999 95.059998 -423.57999 307
255.22 95.040001 -423.51001 0
168.74001 95.190002 -423.56 320
256.81 95.129997 -423.54001 2442
168.19 95.279999 -423.53 320
257.25 95.220001 -423.51999 0
258.54001 95.459999 -423.51999 2445
166.17 95.690002 -423.57999 0
166.42999 95.650002 -423.60001 0
166.73 95.599998 -423.57001 0
260.29001 95.690002 -423.60001 0
165.92 95.709999 -423.53 0
165.25 95.849998 -423.53 0
261.20999 95.93 -423.57001 0
263.35001 96.410004 -423.53 0
265.97 96.949997 -423.54001 0
268.22 97.57 -423.59 0
269.04001 97.900002 -423.57001 2508
270.26001 98.489998 -423.51999 2512
271.34 98.870003 -423.56 0
274.01001 99.949997 -423.57001 0
274.25 100.17 -423.51999 3298
274.62 100.27 -423.54001 3298
277.06 101.16 -423.57999 3306
277.56 101.35 -423.57999 0
279.73999 102.49 -423.53 0
281.16 103.18 -423.57001 0
281.62 103.6 -423.51999 0
282.23001 103.81 -423.57999 0
282.63 104.05 -423.57999 0
283.54001 104.69 -423.59 0
284.41 105.67 -423.54001 0
285.60999 107.48 -423.51999 0
285.82999 107.81 -423.53 0
286.54999 109.13 -423.59 0
286.67999 110.66 -423.54999 0
286.82001 111.59 -423.56 0
287.09 112.8 -423.60001 0
286.63 113.37 -423.51001 0
287.06 114.44 -423.59 0
287.10001 115.07 -423.60001 0
286.89999 115.56 -423.54999 0
286.87 116.05 -423.54999 3553
287.01001 116.64 -423.59 0
286.60001 117.25 -423.54999 0
285.67001 118.85 -423.56 0
285.39001 119.52 -423.60001 0
284.29999 120.5 -423.51001 0
155.24001 121.18 -423.60001 0
283.85999 121.63 -423.57999 0
158.37 121.91 -423.56 362
283.32999 122.15 -423.54999 3602
161.45 122.77 -423.51001 407
282.89001 122.72 -423.56 0
161.60001 122.84 -423.51001 408
161.74001 122.94 -423.56 407
139.14 123.29 -423.51001 245
139.37 123.22 -423.54999 245
162.17999 123.2 -423.51999 407
282.54999 123.24 -423.59 0
138.87 123.37 -423.56 245
162.25 123.39 -423.57001 403
281.84 123.83 -423.57001 0
162.05 123.93 -423.60001 417
281.19 124.19 -423.51999 3604
161.83 124.31 -423.56 413
161.74001 124.46 -423.60001 413
161.85001 124.4 -423.51999 413
161.81 124.5 -423.51999 413
161.67999 124.62 -423.60001 413
280.66 124.66 -423.54001 0
161.50999 125.01 -423.57999 413
280.26999 125.14 -423.59 0
279.32001 125.59 -423.51999 0
279.23001 125.96 -423.60001 0
160.06 126.36 -423.54999 369
159.89999 126.44 -423.54999 369
159.39999 126.61 -423.59 369
277.78 126.67 -423.53 0
159.21001 126.81 -423.51001 368
158.91 126.9 -423.56 369
158.61 127.04 -423.59 369
277.06 127.12 -423.54001 0
158.34 127.29 -423.56 369
276.91 127.38 -423.60001 0
158.12 127.54 -423.53 391
276.39001 127.6 -423.57999 3594
157.92999 127.82 -423.51001 388
275.75 127.94 -423.59 0
274.98999 128.21001 -423.54999 0
274.39001 128.50999 -423.54999 0
273.76999 128.73 -423.53 0
156.57001 129.00999 -423.59 389
156.35001 129.24001 -423.60001 388
156.19 129.45 -423.60001 388
271.26001 129.87 -423.57999 0
155.42999 130.27 -423.59 381
189.89999 130.25999 -423.57999 0
188.36 130.39 -423.57001 0
190.78999 130.38 -423.54001 0
155.32001 130.42999 -423.54999 381
187.97 130.42999 -423.51999 0
187.5 130.50999 -423.54001 0
269.23999 130.55 -423.59 0
187.06 130.62 -423.57999 647
268.59 130.64999 -423.54001 2774
155.14 130.74001 -423.56 381
186.23 130.78999 -423.51999 647
268 130.78 -423.51001 0
155.08 130.94 -423.57999 380
266.70999 131.25999 -423.57999 2772
155.00999 131.31 -423.60001 381
184.83 131.3 -423.57001 652
184.45 131.41 -423.57001 652
155.03 131.55 -423.56 381
183.47 131.55 -423.51999 0
193.88 131.64 -423.51999 0
155.11 131.74001 -423.51001 381
182.91 131.74001 -423.53 0
180.84 131.83 -423.51001 0
155.12 131.92999 -423.51001 381
179.92 131.95 -423.51999 620
181.32001 131.91 -423.60001 0
182.12 131.92 -423.57999 0
179.33 132.03 -423.51999 620
179.61 132.05 -423.56 620
155.10001 132.14 -423.54999 384
179.14999 132.24001 -423.60001 620
178.81 132.34 -423.57999 619
155.09 132.41 -423.60001 384
178.21001 132.48 -423.51001 620
260.81 132.45 -423.54001 2735
155.37 132.53999 -423.53 384
178.42999 132.52 -423.57999 620
259.70999 132.67999 -423.54999 0
177.75 132.75 -423.54001 620
178 132.75 -423.59 620
155.48 132.81 -423.54999 385
155.64999 133.09 -423.56 385
257.07001 133.02 -423.54999 0
156 133.23 -423.54999 396
156.25 133.22 -423.51999 396
156.62 133.25999 -423.54001 395
156.84 133.27 -423.51001 395
254.95 133.2 -423.54001 2633
156.17 133.34 -423.60001 396
156.37 133.31 -423.57999 396
156.98 133.35001 -423.51999 396
249.69 133.38 -423.54001 0
250.60001 133.38 -423.57001 0
252.28999 133.3 -423.54001 0
156.96001 133.49001 -423.60001 395
200.85001 133.48 -423.56 0
248.85001 133.47 -423.54001 2619
157.09 133.58 -423.57999 395
201.46001 133.58 -423.60001 0
247.24001 133.67 -423.60001 0
157.25999 133.7 -423.53 396
174.94 133.78999 -423.54001 618
175.37 133.75999 -423.51001 493
173.64999 133.83 -423.51999 494
173.98 133.85001 -423.57001 494
175.75 133.83 -423.60001 617
243.53 133.91 -423.54001 0
244.11 133.91 -423.59 0
239.45 134.03 -423.57001 0
242.17 134.05 -423.57001 0
172.82001 134.11 -423.51999 491
173.38 134.12 -423.57999 490
233.14 134.17999 -423.51001 0
157.53 134.25999 -423.54001 396
159.3 134.28999 -423.54001 399
159.85001 134.28999 -423.51001 439
172.44 134.24001 -423.54001 490
173.00999 134.24001 -423.57999 490
158.17 134.39 -423.51001 395
158.64999 134.39 -423.56 395
172.64999 134.37 -423.59 490
230.78999 134.39 -423.54001 0
159.58 134.41 -423.59 399
172.05 134.42999 -423.56 490
209.73 134.41 -423.59 0
229.84 134.45 -423.51999 0
159.88 134.52 -423.57001 439
229.14 134.5 -423.51999 0
160.24001 134.67 -423.53 440
162.88 134.69 -423.60001 443
163.5 134.64 -423.53 451
162.66 134.72 -423.56 442
163.86 134.7 -423.53 451
164.07001 134.77 -423.59 451
164.32001 134.78999 -423.57999 442
164.56 134.78 -423.54001 756
164.81 134.78999 -423.51001 756
168.69 134.78999 -423.54999 758
168.96001 134.78999 -423.60001 758
214.39999 134.74001 -423.57999 0
214.83 134.71001 -423.51999 0
216.31 134.78 -423.57001 0
220.14 134.75999 -423.51001 0
160.89999 134.88 -423.60001 443
165.07001 134.84 -423.54001 756
168.42 134.87 -423.59 758
219.02 134.8 -423.53 0
219.45 134.8 -423.54999 0
161.25 134.89999 -423.60001 443
165.39 134.92 -423.59 756
166.62 134.95 -423.54001 756
168.05 134.97 -423.59 758
167.27 135.03999 -423.53 756
167.77 135.03999 -423.57999 455
206.55 93.790001 -423.42999 0
202.42 93.879997 -423.44 0
203.02 93.879997 -423.42999 0
211.67 93.839996 -423.42999 0
212.46001 93.830002 -423.45001 0
200.88 93.900002 -423.5 0
236.75999 93.980003 -423.44 0
192.06 94.080002 -423.47 0
195.44 94.019997 -423.45999 0
224.13 94.010002 -423.48999 0
239.98 94.010002 -423.47 0
243.32001 94.160004 -423.48001 0
184.69 94.279999 -423.47 0
185.61 94.239998 -423.45001 0
186.84 94.290001 -423.41 0
187.42 94.269997 -423.42999 0
188.14 94.269997 -423.42999 525
188.38 94.269997 -423.44 525
243.84 94.279999 -423.42999 0
183.50999 94.400002 -423.42999 0
177.19 94.589996 -423.41 0
182.48 94.529999 -423.47 0
248.09 94.529999 -423.45999 0
175.57001 94.730003 -423.42999 0
250.33 94.739998 -423.45999 0
173.14 94.849998 -423.42999 0
173.50999 94.82 -423.47 0
174.28999 94.82 -423.41 0
174.86 94.839996 -423.45999 0
254.14 94.989998 -423.48001 0
169.14999 95.120003 -423.45001 0
165.39 95.779999 -423.42999 0
165.64 95.75 -423.48999 0
259.62 95.800003 -423.44 0
268.38 97.910004 -423.45001 0
270.67001 98.910004 -423.41 0
272.07001 99.339996 -423.48999 0
273.14999 99.870003 -423.45999 0
275.01999 100.73 -423.41 0
275.85001 101.05 -423.42001 0
276.45001 101.2 -423.45999 0
276.76999 101.43 -423.42001 3306
277.94 101.72 -423.5 0
278.89999 102.34 -423.44 3310
279.89999 102.91 -423.41 0
282.12 104.25 -423.42999 0
282.70001 104.46 -423.48001 3520
283.54999 105.27 -423.45001 0
284.76001 106.29 -423.5 3528
285.04999 106.81 -423.48001 0
285.54001 108.4 -423.42001 0
286.25 109.61 -423.5 0
286.20999 110.12 -423.45999 3536
286.54001 112.23 -423.48999 3546
286.25 112.75 -423.44 0
286.48001 114 -423.48001 3549
286.20999 114.57 -423.42001 0
286.45999 115 -423.47 0
286.54999 115.4 -423.48001 0
286.23001 115.87 -423.41 3554
285.70001 118.2 -423.48001 0
285.19 118.49 -423.42001 0
285.04001 119.04 -423.45999 0
284.67001 119.74 -423.48001 3610
152.52 120.89 -423.47 349
283.59 121.06 -423.42999 0
157.84 121.74 -423.42999 0
158.14 121.83 -423.45001 362
158.97 122.07 -423.42001 363
160.61 122.51 -423.5 405
161.03 122.63 -423.48001 407
161.27 122.71 -423.5 407
140.06 122.96 -423.42999 0
161.82001 122.9 -423.41 407
162.03999 123.04 -423.45001 407
139.5 123.18 -423.5 245
162.27 123.16 -423.41 407
139.24001 123.26 -423.44 245
139 123.33 -423.48001 245
162.35001 123.3 -423.45999 407
281.64001 123.37 -423.42999 0
138.61 123.46 -423.48001 245
162.36 123.49 -423.48001 417
162.28999 123.74 -423.47 403
161.99001 124.15 -423.5 417
161.95 124.31 -423.45999 417
161.89999 124.43 -423.45999 413
161.86 124.55 -423.45001 413
161.75999 124.79 -423.47 417
161.5 125.21 -423.47 417
279.59 125.29 -423.48999 0
161.3 125.43 -423.48999 415
161.06 125.73 -423.44 415
160.71001 126 -423.47 415
278.44 126.08 -423.48001 0
160.35001 126.27 -423.45999 415
160.10001 126.46 -423.45001 369
159.78999 126.58 -423.47 369
159.53999 126.75 -423.44 369
277.25 126.85 -423.48001 0
159.11 126.97 -423.42999 368
158.85001 127.1 -423.45001 369
158.58 127.29 -423.44 369
276.32999 127.23 -423.44 0
157.73 128.14999 -423.48999 388
274.38 128.19 -423.42001 0
273.92999 128.39 -423.42001 0
157.21001 128.72 -423.48999 388
156.91 128.89 -423.5 388
273.14001 128.92 -423.48999 0
272.34 129.08 -423.42001 0
156.71001 129.10001 -423.45001 388
156.53 129.22 -423.48999 388
156.42 129.48 -423.41 388
155.89 130.02 -423.47 381
270.39001 130 -423.48999 0
155.66 130.27 -423.45999 381
188.64999 130.27 -423.48001 0
189 130.2 -423.44 0
189.28999 130.2 -423.47 0
269.70001 130.23 -423.48999 0
155.49001 130.44 -423.44 380
186.69 130.56 -423.41 647
155.33 130.62 -423.44 380
155.24001 130.88 -423.42999 380
185.71001 130.84 -423.42001 0
185.14 131.03 -423.42999 652
155.14999 131.11 -423.48999 380
184.67 131.16 -423.44 652
265.51999 131.25 -423.42001 0
266.17999 131.24001 -423.5 0
155.25999 131.32001 -423.42001 381
184.3 131.31 -423.48999 652
193.23 131.39 -423.5 0
183.94 131.39999 -423.5 652
155.32001 131.56 -423.42001 385
265 131.50999 -423.5 0
155.38 131.78 -423.42001 385
179.22 131.78999 -423.41 620
179.85001 131.71001 -423.41 620
181.71001 131.75 -423.47 0
194.39999 131.75999 -423.41 0
263.66 131.72 -423.45001 0
179.57001 131.85001 -423.45999 620
182.46001 131.8 -423.5 630
155.38 132.02 -423.45001 385
178.66 132.00999 -423.41 620
178.96001 132.06 -423.48001 620
155.35001 132.28 -423.48999 384
178.37 132.21001 -423.42999 620
178.59 132.27 -423.5 620
155.53999 132.42999 -423.47 384
155.73 132.47 -423.42001 384
178.03 132.39999 -423.44 620
196.45 132.42999 -423.48999 0
177.74001 132.53999 -423.45001 620
155.62 132.63 -423.48001 385
155.86 132.64 -423.42001 384
177.25 132.75 -423.42999 620
177.5 132.75 -423.48999 620
155.75999 132.83 -423.47 385
256.31 132.88 -423.42001 0
155.98 132.98 -423.45001 396
156.25 133.05 -423.44 396
156.48 133.12 -423.45999 396
253.09 133.19 -423.47 0
253.99001 133.16 -423.47 0
200.05 133.28 -423.41 0
157.14 133.38 -423.47 396
157.32001 133.48 -423.42999 396
173.7 133.57001 -423.42999 494
172.22 133.67999 -423.41 0
173.39999 133.62 -423.42001 490
173.97 133.60001 -423.45999 494
174.33 133.61 -423.47 494
245.50999 133.67 -423.45001 0
246.34 133.63 -423.48001 0
171.73 133.78 -423.41 0
174.63 133.7 -423.48999 494
175.75 133.74001 -423.48001 617
204.14 133.73 -423.45001 0
244.72 133.78 -423.5 0
157.44 133.81 -423.45999 396
160.21001 133.87 -423.41 440
172.88 133.87 -423.45999 491
206.06 133.86 -423.48999 0
242.99001 133.85001 -423.41 0
159.58 133.95 -423.45001 440
159.86 133.99001 -423.45001 440
172.55 133.94 -423.47 491
173.2 133.92999 -423.48999 491
206.92999 133.91 -423.45001 0
207.34 133.99001 -423.5 0
236.7 133.94 -423.45999 0
238.64999 133.92999 -423.48001 0
157.46001 134.02 -423.48001 396
159.33 134.03 -423.45001 399
160.36 134.06 -423.41 440
172.11 134.06 -423.48001 0
207.75999 134.03999 -423.45999 0
235.33 134.03 -423.47 2236
159 134.11 -423.42001 399
159.57001 134.17 -423.5 440
160.11 134.16 -423.45999 440
208.95 134.19 -423.41 0
234.09 134.11 -423.5 0
157.87 134.28 -423.44 399
158.74001 134.21001 -423.42001 399
160.3 134.27 -423.44 440
160.50999 134.25 -423.41 440
162.89999 134.24001 -423.41 443
163.27 134.28999 -423.41 451
171.60001 134.28 -423.45999 0
158.36 134.32001 -423.42001 399
160.17 134.42999 -423.48001 440
160.42 134.41 -423.44 440
160.50999 134.57001 -423.42999 440
162.73 134.55 -423.45999 443
163.14 134.50999 -423.48999 451
228.09 134.53999 -423.5 0
164.27 134.69 -423.47 451
168.87 134.69 -423.48001 758
169.17 134.67 -423.48001 479
215.71001 134.67 -423.42999 0
225.28999 134.63 -423.42001 0
160.77 134.75999 -423.44 443
162.22 134.78999 -423.45001 443
162.47 134.7 -423.45999 443
164.67999 134.7 -423.44 451
164.98 134.75 -423.45001 756
165.32001 134.75999 -423.44 756
168.48 134.78 -423.45001 758
168.64999 134.71001 -423.44 758
169.48 134.72 -423.5 478
169.75 134.75 -423.48001 481
171.24001 134.74001 -423.42999 0
216.91 134.75999 -423.48999 0
217.59 134.75 -423.45001 0
218.17 134.73 -423.41 2172
222.22 134.73 -423.42999 0
224.61 134.72 -423.48001 0
161.56 134.88 -423.48001 443
161.89999 134.85001 -423.47 442
165.64999 134.84 -423.48001 452
165.92999 134.88 -423.5 756
166.17999 134.87 -423.48999 756
166.41 134.86 -423.42999 756
168.23 134.84 -423.41 758
166.89999 134.94 -423.44 756
167.92999 134.94 -423.41 758
167.62 135.02 -423.45999 455
205.37 93.830002 -423.39999 0
205.85001 93.82 -423.38 0
210.94 93.879997 -423.35001 0
213.44 93.879997 -423.37 0
196.85001 93.980003 -423.32001 0
197.49001 93.949997 -423.32001 0
199.59 93.900002 -423.39001 0
200.13 93.910004 -423.39999 0
200.50999 93.93 -423.35999 0
214.81 93.940002 -423.32999 0
216 93.970001 -423.34 0
232.17 93.980003 -423.39999 0
193.48 94.059998 -423.31 0
195.88 94.019997 -423.39999 0
218.59 94.019997 -423.38 0
224.86 94.040001 -423.38 0
226.61 94.050003 -423.31 0
228.05 94.040001 -423.32999 0
229.05 94.019997 -423.35999 0
229.86 94.050003 -423.32999 0
236.03999 94 -423.39999 0
239.2 94.080002 -423.39999 2114
189.56 94.18 -423.34 0
190.57001 94.099998 -423.39001 0
222.56 94.120003 -423.32999 0
238.78 94.129997 -423.34 2114
240.69 94.190002 -423.31 0
185.97 94.260002 -423.39001 0
186.38 94.290001 -423.37 0
188.64999 94.25 -423.39999 525
188.91 94.230003 -423.32001 525
189.12 94.209999 -423.39999 525
242.82001 94.25 -423.35001 0
244.42999 94.379997 -423.39001 2308
244.97 94.489998 -423.34 0
178.85001 94.690002 -423.35001 0
179.48 94.68 -423.37 0
180.5 94.639999 -423.32001 0
175.23 94.779999 -423.32999 0
172.17999 94.980003 -423.35001 0
172.67999 94.900002 -423.34 0
253.64 95.089996 -423.37 0
171.56 95.099998 -423.39001 307
167.78999 95.360001 -423.37 0
255.67999 95.300003 -423.34 0
256.26999 95.300003 -423.38 0
167.17999 95.489998 -423.39999 0
166.58 95.559998 -423.32001 0
166.32001 95.610001 -423.32001 0
259.01999 95.75 -423.39001 0
260.20999 96.089996 -423.32001 0
264.94 97.010002 -423.35999 0
266.60001 97.43 -423.37 2499
267.39001 97.82 -423.31 0
268.84 98.199997 -423.39001 0
269.45001 98.559998 -423.34 0
274.06 100.42 -423.38 3298
277.19 101.7 -423.38 0
278.01999 102.22 -423.32999 0
280.17999 103.32 -423.32999 0
281.70001 104.06 -423.39999 0
282.72 104.95 -423.35999 0
283.35999 105.7 -423.31 0
283.76001 106.1 -423.32001 0
284.35001 106.72 -423.34 0
284.85999 107.39 -423.37 0
285.07999 107.9 -423.35999 0
285.64001 109.18 -423.38 0
285.5 109.99 -423.31 0
285.94 110.47 -423.39001 0
285.98001 111 -423.39001 0
285.84 111.65 -423.34 0
285.89001 112.25 -423.35999 0
285.60001 112.64 -423.31 0
285.60999 113.24 -423.31 0
285.81 113.78 -423.35001 0
285.78 114.28 -423.34 0
285.82001 115.1 -423.34 0
285.92999 115.52 -423.35001 0
286 116.59 -423.38 0
285.48999 117.44 -423.34 0
284.60999 118.65 -423.32999 0
284.47 119.22 -423.38 0
284.07001 119.36 -423.32001 0
283.84 119.69 -423.31 0
284.23999 119.63 -423.39001 0
284.04001 120.03 -423.39001 0
283.45999 120.43 -423.32001 0
152.27 120.84 -423.32999 349
155.66 121.28 -423.34 0
156.17 121.37 -423.34 0
156.67999 121.45 -423.31 0
282.89001 121.58 -423.35999 0
159.61 122.2 -423.39001 0
161.53999 122.74 -423.32999 407
161.67999 122.81 -423.35999 407
281.81 122.86 -423.35999 0
162.42999 123.22 -423.34 407
138.82001 123.39 -423.35001 245
139.05 123.32 -423.32999 245
162.45 123.38 -423.39001 417
162.48 123.57 -423.35999 403
162.42 123.82 -423.34 403
162.21001 124.02 -423.39001 403
162.09 124.24 -423.35999 417
162 124.41 -423.38 417
162 124.61 -423.32999 417
279.72 124.86 -423.39999 0
161.73 125.08 -423.37 419
278.53 125.68 -423.37 3574
277.76999 126.22 -423.38 0
160.09 126.64 -423.32001 369
159.83 126.73 -423.35001 369
276.51999 126.89 -423.35001 0
159.38 126.9 -423.39001 369
159.28 127.03 -423.34 368
159.10001 127.16 -423.32001 369
158.84 127.33 -423.31 369
275.54001 127.45 -423.35999 0
158.34 127.55 -423.39999 369
158.58 127.5 -423.31 369
274.70999 127.79 -423.32999 3589
158.14 127.81 -423.37 392
273.39999 128.47 -423.34 0
157.55 128.56 -423.38 392
271.48001 129.34 -423.38 0
156.21001 129.75999 -423.39999 389
190.33 130.19 -423.35999 0
268.98001 130.2 -423.37 0
268.26999 130.32001 -423.32001 0
155.67 130.47 -423.32001 381
267.63 130.5 -423.32001 0
267.01001 130.67999 -423.32001 0
192.08 130.81 -423.38 0
155.36 131.07001 -423.32999 381
183.81 131.08 -423.31 0
184.38 131 -423.31 652
183.24001 131.23 -423.31 0
155.48 131.39 -423.32999 385
264.37 131.45 -423.38 2769
155.59 131.59 -423.32001 385
179.03 131.53 -423.31 0
179.48 131.53 -423.34 0
181.28 131.58 -423.35999 0
182.12 131.58 -423.35999 0
180.3 131.69 -423.39999 0
178.88 131.78999 -423.37 619
155.66 131.88 -423.35001 385
178.61 131.82001 -423.34 620
262.41 131.8 -423.32999 2739
178.45 131.98 -423.37 620
178.17999 132.10001 -423.37 620
155.67 132.22 -423.39999 385
177.85001 132.28 -423.37 620
195.96001 132.22 -423.39999 0
177.28 132.35001 -423.31 620
155.99001 132.42999 -423.35999 384
177.53 132.48 -423.39001 620
156.17999 132.56 -423.34 385
197.02 132.55 -423.38 0
258.31 132.58 -423.35001 0
156.06 132.63 -423.37 384
156.19 132.69 -423.35001 385
156.31 132.62 -423.32001 385
257.57999 132.64 -423.34 0
156.03 132.77 -423.39999 385
176.75 132.75 -423.32001 616
197.55 132.7 -423.39001 0
156.27 132.81 -423.35999 385
156.55 132.85001 -423.32999 385
198.12 132.84 -423.39999 0
198.73 132.96001 -423.32999 0
156.86 133 -423.35999 395
157.14999 133.16 -423.37 396
157.37 133.27 -423.32999 396
162.31 133.28999 -423.31 443
162.78999 133.24001 -423.31 443
163.17999 133.2 -423.31 443
176.25 133.25 -423.35001 618
161.91 133.31 -423.31 443
163.39999 133.39 -423.32001 443
172.39 133.35001 -423.31 0
173.56 133.39 -423.35001 494
173.85001 133.34 -423.35001 494
174.17999 133.35001 -423.35999 494
174.46001 133.36 -423.34 494
161.81 133.41 -423.32001 443
162.14999 133.46001 -423.32999 443
162.59 133.49001 -423.34 443
163.00999 133.46001 -423.34 443
172.81 133.42 -423.32001 491
174.66 133.46001 -423.37 494
174.89 133.48 -423.35001 494
201.17 133.41 -423.35999 0
201.72 133.49001 -423.38 0
159.49001 133.5 -423.31 440
160.44 133.52 -423.34 443
160.82001 133.50999 -423.31 443
171.38 133.53999 -423.32001 0
175.03999 133.57001 -423.38 618
175.37 133.53999 -423.35999 618
175.75 133.55 -423.35999 617
202.28999 133.53999 -423.35999 0
157.47 133.60001 -423.39001 399
160.05 133.64999 -423.38 440
161.88 133.61 -423.32999 443
163.48 133.69 -423.32999 443
172.67 133.66 -423.39999 491
173.03999 133.64 -423.39999 491
157.59 133.71001 -423.35999 396
159.39 133.77 -423.38 440
159.71001 133.71001 -423.39001 440
160.52 133.78 -423.35999 440
162.36 133.71001 -423.35001 443
163.22 133.72 -423.35001 443
205.28999 133.74001 -423.32001 0
205.73 133.78 -423.35999 0
157.62 133.86 -423.38 396
159.09 133.85001 -423.35999 395
160.83 133.8 -423.32001 443
161.75 133.86 -423.31 443
162.84 133.81 -423.37 0
171.25 133.89 -423.35999 0
235.92999 133.87 -423.31 0
237.38 133.86 -423.39999 0
240.32001 133.85001 -423.32001 0
241.25999 133.89 -423.35999 0
158.84 133.89999 -423.32999 399
162.12 133.89999 -423.32999 443
163.38 133.95 -423.35001 443
163.56 133.92 -423.32001 442
234.7 133.99001 -423.37 2236
241.82001 133.89999 -423.38 0
157.7 134.06 -423.38 396
158.57001 134.03 -423.31 399
158.73 134.00999 -423.34 399
160.63 134.02 -423.35999 443
160.92 134.07001 -423.32001 440
162.49001 134.06 -423.35999 443
163.17 134.03999 -423.38 442
163.64999 134.08 -423.31 442
158.50999 134.19 -423.35001 399
162.22 134.13 -423.32999 443
163.36 134.16 -423.37 442
163.5 134.12 -423.34 452
231.75 134.14 -423.31 0
158.12 134.2 -423.32999 399
160.77 134.25 -423.35999 440
162.14 134.27 -423.31 443
162.33 134.28999 -423.32999 443
163.46001 134.27 -423.37 442
163.63 134.24001 -423.34 452
210.16 134.28999 -423.32999 0
161.03 134.32001 -423.31 440
162.55 134.37 -423.38 443
171.06 134.33 -423.35001 481
160.66 134.44 -423.39999 440
160.91 134.46001 -423.35001 443
161.10001 134.49001 -423.31 440
162.34 134.45 -423.32999 443
163.53999 134.42 -423.39001 451
211.00999 134.42 -423.39001 0
227.57001 134.42999 -423.32001 0
161.05 134.59 -423.32001 440
162.44 134.57001 -423.37 443
163.95 134.53 -423.38 451
164.5 134.53999 -423.32999 452
168.94 134.58 -423.38 479
169.19 134.53 -423.35001 478
169.66 134.55 -423.31 478
211.83 134.50999 -423.39999 0
212.60001 134.53999 -423.35001 0
226.00999 134.53 -423.32999 0
160.85001 134.61 -423.37 443
162.27 134.69 -423.35001 443
164.99001 134.63 -423.37 756
165.44 134.61 -423.34 452
165.71001 134.64 -423.32999 756
168.46001 134.69 -423.32001 758
168.58 134.67 -423.37 758
168.72 134.63 -423.38 758
169.45 134.60001 -423.39001 478
169.72 134.66 -423.39001 478
215.14999 134.62 -423.38 0
218.61 134.66 -423.32001 0
161.14999 134.7 -423.31 440
165.61 134.72 -423.38 756
165.83 134.74001 -423.38 452
166.07001 134.74001 -423.35999 452
166.3 134.75 -423.34 756
166.47 134.77 -423.31 756
168.36499 134.75 -423.33499 758
168.48 134.72 -423.37 758
169.99001 134.73 -423.38 481
161.25999 134.83 -423.39999 443
161.67 134.8 -423.31 443
166.63 134.85001 -423.38 756
166.81 134.85001 -423.31 756
167 134.89999 -423.34 756
167.16 134.94 -423.35999 758
167.44 134.95 -423.31 758
204.89 93.870003 -423.28 0
207.35001 93.830002 -423.29999 0
208.08 93.870003 -423.22 0
208.84 93.860001 -423.29999 0
201.24001 93.940002 -423.28 0
201.84 93.93 -423.25 0
219.41 94.080002 -423.29001 0
226 94.089996 -423.25 0
227.16 94.089996 -423.23999 0
232.81 94.089996 -423.25 0
234.14999 94.080002 -423.26001 2108
234.8 94.080002 -423.28 0
192.56 94.099998 -423.20999 0
225.48 94.099998 -423.25 0
230.62 94.120003 -423.25 0
185.17999 94.25 -423.23999 0
188.63 94.260002 -423.22 525
239.5 94.230003 -423.26001 2114
242.19 94.32 -423.23999 0
176.72 94.589996 -423.25 0
177.69 94.629997 -423.28 0
180.08 94.660004 -423.26999 0
180.95 94.629997 -423.25 0
181.52 94.599998 -423.22 0
248.49001 94.779999 -423.29999 2355
248.92999 94.860001 -423.29001 0
169.75 95.029999 -423.25 0
170.25 95.029999 -423.25 0
170.75 95.059998 -423.25 0
249.96001 95.019997 -423.23999 0
250.69 95.029999 -423.23001 2358
171.25999 95.099998 -423.25 0
251.31 95.099998 -423.20999 0
168.5 95.220001 -423.28 0
254.46001 95.279999 -423.26999 0
166.86 95.510002 -423.23999 0
165.74001 95.660004 -423.22 0
166.03999 95.629997 -423.26001 0
257.76999 95.669998 -423.26999 0
164.75 95.790001 -423.25 0
165.02 95.75 -423.25 0
165.25 95.736664 -423.27332 0
165.42 95.699997 -423.20999 0
164 95.889999 -423.25 293
164.25 95.860001 -423.25 293
163.75 95.910004 -423.25 293
258.56 95.900002 -423.22 0
262.04001 96.620003 -423.23999 0
263.95001 97.040001 -423.22 0
270.04001 98.870003 -423.29999 0
271.04001 99.5 -423.22 0
276.03 101.42 -423.29999 0
276.44 101.72 -423.25 0
276.82999 101.97 -423.22 3307
277.37 102.06 -423.28 0
278.89999 102.89 -423.23999 0
280.45999 103.81 -423.23001 0
281.09 104.15 -423.25 3516
281.51001 104.42 -423.26001 0
282.01001 104.67 -423.29001 0
282.63 105.41 -423.23001 0
283.81 106.55 -423.25 0
284.26999 107.09 -423.28 0
284.79999 108.94 -423.20999 0
285.45999 110.57 -423.28 0
285.19 111.01 -423.20999 0
285.39001 111.97 -423.25 0
285.25 112.19 -423.22 0
285.54001 112.28 -423.29001 0
285.37 112.4 -423.25 0
285.23999 112.6 -423.23001 0
285.12 112.93 -423.20999 0
285.25 114.23 -423.23999 0
285.35001 114.57 -423.26001 0
285.62 114.77 -423.29999 0
285.22 114.92 -423.22 0
285.35999 115.15 -423.25 0
285.23999 115.53 -423.22 0
285.20001 116.12 -423.20999 0
284.73001 118.04 -423.26999 3551
284.07999 118.94 -423.26001 0
283.69 119.27 -423.23001 0
283.39001 119.65 -423.22 0
283.20001 120.03 -423.22 0
283.60001 120 -423.29999 0
151.74001 120.64 -423.26001 349
150.75 120.77 -423.23001 0
150.87 120.71 -423.23999 0
152.14 120.78 -423.26001 349
152.8 120.91 -423.29999 0
282.73001 120.92 -423.23001 0
154.89 121.17 -423.29001 0
155.27 121.23 -423.26999 0
157.11 121.53 -423.28 0
157.5 121.63 -423.29001 0
158.7 122.01 -423.26999 362
282.12 122.18 -423.29999 3603
141.23 122.24 -423.22998 252
160.3 122.39 -423.29001 0
140.99001 122.41 -423.25 252
140.74001 122.57 -423.25 252
161.27 122.64 -423.22 407
161.38 122.69 -423.29999 408
140.48 122.74 -423.25 252
161.91 122.87 -423.26001 408
162.09 122.96 -423.28 407
162.3 123.08 -423.29999 407
139.38 123.21 -423.29001 245
162.57001 123.36 -423.26999 407
138.53999 123.49 -423.22 245
162.67 123.53 -423.22 407
280.66 123.6 -423.28 3605
162.57001 123.7 -423.28 403
162.55 123.86 -423.25 403
162.42 124.06 -423.23999 417
162.25 124.25 -423.26001 403
279.94 124.22 -423.28 0
162.14 124.43 -423.26999 417
162.14999 124.65 -423.20999 417
162 124.89 -423.25 417
278.84 125.21 -423.29999 0
161.64 125.36 -423.29001 419
277.89001 125.83 -423.28 0
160.39 126.49 -423.26999 415
277.01001 126.45 -423.29999 0
160.02 126.86 -423.20999 415
159.67999 126.91 -423.29001 369
159.47 127.01 -423.29001 368
275.62 127 -423.20999 0
159.37 127.18 -423.23001 369
158.42999 127.66 -423.28 392
158.58 127.67 -423.20999 392
158.3 127.8 -423.26999 392
273.88 128.08 -423.28 0
158.02 128.13 -423.26999 392
272.76001 128.56 -423.26999 0
157.12 129.14999 -423.23001 389
156.87 129.21001 -423.29999 389
156.67 129.39 -423.29999 389
270.57999 129.50999 -423.29999 2778
269.57999 129.74001 -423.23999 0
189.57001 130.09 -423.26999 0
155.86 130.32001 -423.29001 381
187.11 130.38 -423.29999 647
155.67999 130.59 -423.23001 381
155.78999 130.5 -423.22 380
186.28 130.53 -423.28 0
155.53999 130.61 -423.29999 380
185.42999 130.69 -423.23999 0
266.42001 130.72 -423.26001 0
155.48 130.83 -423.25 381
184.95 130.84 -423.26999 652
264.82001 131.19 -423.29001 0
155.49001 131.23 -423.28 385
179.07001 131.21001 -423.22 0
155.59 131.31 -423.26001 385
155.7 131.36 -423.23001 385
178.75999 131.33 -423.23999 0
182.63 131.34 -423.28 0
155.62 131.42 -423.28 385
155.73 131.48 -423.25 385
179.92999 131.42 -423.29001 620
180.78 131.41 -423.25 628
181.69 131.45 -423.28 0
178.67 131.58 -423.29001 620
155.86 131.67 -423.25 385
177.98 131.64 -423.23001 620
178.33 131.77 -423.29999 620
177.66 131.85001 -423.23001 620
194.92999 131.82001 -423.20999 0
177.94 131.97 -423.29999 620
261.29999 131.89999 -423.25 0
156.03999 132.05 -423.28 0
177.10001 132.09 -423.22 620
177.39 132.06 -423.23999 620
195.49001 132.02 -423.29001 0
177.60001 132.17 -423.29999 620
259.13 132.33 -423.26999 0
156.27 132.41 -423.29001 385
176.91 132.49001 -423.29001 616
156.5 132.57001 -423.26999 385
256.84 132.55 -423.23001 2723
163.48 132.78999 -423.20999 443
176.25 132.75 -423.20999 618
176.46001 132.75 -423.26001 618
255.45 132.75 -423.28 0
163.22 132.83 -423.20999 443
163.31 132.89 -423.23999 443
163.74001 132.8 -423.20999 450
163.97 132.82001 -423.20999 450
176.25 132.86 -423.23001 618
251.49001 132.85001 -423.22 0
161.21001 132.99001 -423.20999 443
162.92999 132.91 -423.22 443
163.09 132.96001 -423.25 443
163.53 132.91 -423.25 443
163.8 132.92 -423.23999 450
164.08 132.92 -423.23001 450
164.39999 132.94 -423.22 450
176.25 132.96001 -423.25 618
157.48 133.09 -423.22 396
160.87 133.07001 -423.23001 443
161.50999 133.05 -423.23999 443
161.83 133.06 -423.25 443
162.11 133.00999 -423.22 441
162.31 133.08 -423.25 443
162.62 133 -423.23001 443
162.83 133.06 -423.26001 443
163.03 133.08 -423.28 443
163.28 133.00999 -423.26999 443
163.53999 133.09 -423.28 450
163.88 133.05 -423.26001 442
164.13 133.07001 -423.25 450
173.58 133.08 -423.23999 494
174.00999 133.02 -423.23999 494
176.07001 133.05 -423.23999 618
161.12 133.14 -423.26001 443
161.39 133.17999 -423.26999 443
161.72 133.14999 -423.26999 443
162.02 133.13 -423.26001 441
162.22 133.17999 -423.28 443
162.50999 133.14999 -423.28 443
163.95 133.16 -423.26999 450
164.33 133.14999 -423.25 450
164.61 133.11 -423.23001 455
172.71001 133.11 -423.20999 0
174.38 133.10001 -423.25 494
174.84 133.13 -423.20999 494
175.87 133.13 -423.23001 618
176.14 133.14999 -423.28 618
176.25 133.11 -423.29999 618
157.58 133.25 -423.23001 396
159.23 133.28999 -423.20999 440
159.56 133.25999 -423.23001 440
160.55 133.24001 -423.28 443
160.78999 133.28999 -423.28 443
161.09 133.28999 -423.28 443
161.39 133.28999 -423.29001 443
161.64999 133.23 -423.29001 443
161.97 133.22 -423.29001 443
163.72 133.22 -423.29001 442
163.87 133.28999 -423.29001 442
164.08 133.23 -423.26999 450
164.48 133.28999 -423.23999 452
164.7 133.27 -423.22 452
171.25 133.28 -423.23999 0
174.64 133.22 -423.26999 494
174.98 133.25999 -423.25 494
175.25999 133.22 -423.22 618
175.69 133.21001 -423.23001 618
175.92 133.25 -423.26001 618
176.09 133.25 -423.29999 618
200.56 133.25999 -423.23999 727
247.97 133.28 -423.29999 0
157.72 133.38 -423.20999 399
159.85001 133.38 -423.29001 440
160.24001 133.32001 -423.29001 440
161.64 133.32001 -423.29999 443
164.22 133.34 -423.26001 450
164.64 133.38 -423.23001 452
171.77 133.34 -423.29999 0
173.19 133.31 -423.29001 0
174.84 133.32001 -423.29001 494
174.97 133.37 -423.29001 618
175.03999 133.34 -423.26999 494
175.11 133.3 -423.25 494
175.47 133.32001 -423.25 618
175.75 133.34 -423.26999 618
175.84 133.3 -423.26001 618
157.53 133.41 -423.29999 396
161.2 133.44 -423.29001 443
161.53999 133.42 -423.29999 443
163.67 133.45 -423.29999 442
163.92999 133.45 -423.28 442
164.34 133.45 -423.25 452
164.50999 133.42999 -423.23999 452
164.84 133.46001 -423.20999 455
175.06 133.42 -423.29999 618
175.23 133.39999 -423.28 618
157.64999 133.56 -423.29001 396
157.82001 133.56 -423.22 399
158.82001 133.59 -423.25 399
159.11 133.58 -423.29001 399
164.13 133.53 -423.26001 452
164.45 133.58 -423.23001 452
164.64 133.55 -423.22 452
170.96001 133.53999 -423.25 0
202.91 133.50999 -423.26001 0
203.56 133.53 -423.22 0
158.69 133.67999 -423.25 399
161.11 133.66 -423.29001 443
161.46001 133.62 -423.29999 443
163.94 133.67999 -423.26001 452
164.28 133.60001 -423.23999 452
244.03 133.64 -423.29001 0
157.73 133.71001 -423.29999 396
157.87 133.72 -423.25 399
158.42999 133.75 -423.20999 399
158.56 133.73 -423.23001 399
158.62 133.75 -423.25 399
158.72 133.78 -423.28 399
158.87 133.72 -423.29001 399
163.71001 133.7 -423.29001 443
164.14999 133.72 -423.23001 452
164.35001 133.74001 -423.22 452
164.56 133.75999 -423.22 451
164.82001 133.78999 -423.20999 452
170.59 133.74001 -423.20999 481
206.45 133.75 -423.28 0
242.50999 133.74001 -423.25 2579
157.8 133.87 -423.29999 396
157.98 133.82001 -423.23999 399
158.55 133.82001 -423.25 399
158.6525 133.86501 -423.28998 399
161.42 133.87 -423.29001 443
163.84 133.83 -423.26001 452
164.02 133.86 -423.23001 451
207.27 133.87 -423.29001 0
234.86 133.86 -423.20999 2236
158.12 133.98 -423.23999 399
158.28 133.92 -423.22 399
158.42 133.99001 -423.26001 399
161.14999 133.94 -423.29001 443
163.72 133.92999 -423.28 442
163.89 133.98 -423.25 442
164.25 133.91 -423.20999 451
164.45 133.91 -423.20999 452
208.17 133.96001 -423.22 0
157.92 134.03999 -423.29999 399
163.78999 134.07001 -423.26999 442
164.11 134.06 -423.20999 452
170.59 134.08 -423.23001 481
170.85001 134 -423.28 481
158.28999 134.12 -423.28 399
161.46001 134.13 -423.26999 440
161.69 134.11 -423.28 443
161.97 134.13 -423.29999 443
163.75999 134.17999 -423.29001 452
163.92999 134.16 -423.25 451
209.42 134.14999 -423.26001 0
161.27 134.24001 -423.28 440
161.67999 134.28999 -423.26999 443
164.97 134.28 -423.22 452
170.42 134.25999 -423.20999 481
161.56 134.35001 -423.26001 443
161.85001 134.32001 -423.26999 443
162.02 134.34 -423.29001 443
163.83 134.32001 -423.29999 452
164.19 134.31 -423.25 451
164.61 134.37 -423.23999 452
164.82001 134.36 -423.23999 452
164.96001 134.39 -423.25 452
165.17 134.38 -423.25 452
165.49001 134.33 -423.20999 455
169.35001 134.36 -423.22 478
170.67 134.37 -423.26999 481
228.61 134.36 -423.29999 0
161.24001 134.45 -423.28 440
161.45 134.45 -423.26001 443
161.75 134.45 -423.25 443
162.17 134.42 -423.29999 443
164.845 134.42 -423.26999 452
164.97 134.44 -423.28 452
165.46001 134.47 -423.26999 452
165.75 134.45 -423.23001 452
168.92 134.42999 -423.26001 758
169.2 134.42 -423.26001 479
169.41 134.48 -423.29001 478
169.59 134.42999 -423.23001 478
161.19 134.58 -423.29001 440
161.36 134.59 -423.26001 440
161.55 134.58 -423.23999 443
161.63 134.5 -423.25 443
161.96001 134.5 -423.26001 443
162.2 134.57001 -423.29999 443
164.84 134.5 -423.29999 452
165.14999 134.50999 -423.29999 452
165.67 134.55 -423.29001 756
165.92 134.59 -423.28 452
168.67999 134.55 -423.28 479
169.82001 134.50999 -423.23001 478
170.08 134.59 -423.23001 481
213.36 134.53 -423.28 0
214.11 134.52 -423.23999 0
214.73 134.55 -423.26999 0
223.12 134.57001 -423.22 0
161.73 134.62 -423.23999 443
166.22 134.62 -423.26001 756
166.49001 134.69 -423.23001 756
168.53 134.63 -423.29999 758
169.92999 134.63 -423.29999 481
221.42999 134.63 -423.29999 0
161.47 134.71001 -423.25 440
162 134.72 -423.29999 443
166.62 134.78 -423.28 758
166.77 134.75999 -423.20999 758
168.27 134.77 -423.29999 758
168.31 134.71001 -423.23999 479
170.245 134.745 -423.26001 481
170.34999 134.75 -423.25 481
170.75 134.75 -423.29001 481
166.99001 134.84 -423.25 758
167.10001 134.89 -423.29999 756
167.22 134.87 -423.23999 758
168.09 134.82001 -423.26999 758
167.78 134.89999 -423.25 758
197.99001 93.959999 -423.14001 0
198.84 93.940002 -423.19 0
200.84 93.980003 -423.12 0
205.42999 93.900002 -423.14999 0
210.16 93.93 -423.19 0
211.31 93.949997 -423.14999 0
211.85001 93.93 -423.20001 0
191.55 94.089996 -423.20001 0
193.98 94.050003 -423.19 0
194.50999 94.029999 -423.20001 0
196.24001 94.040001 -423.14001 0
216.85001 94.07 -423.17999 0
220.23 94.139999 -423.19 0
188.03999 94.279999 -423.13 525
188.46001 94.269997 -423.16 525
188.84 94.25 -423.19 525
189.12 94.220001 -423.16 525
231.37 94.220001 -423.10999 0
235.27 94.239998 -423.12 0
239.10001 94.290001 -423.19 2114
184.05 94.330002 -423.14001 0
238.03 94.339996 -423.10999 0
183.02 94.449997 -423.17001 0
182.08 94.559998 -423.12 0
243.36 94.519997 -423.14999 0
176.14 94.639999 -423.17999 0
178.45 94.669998 -423.10999 0
244.55 94.720001 -423.12 2308
245.5 94.730003 -423.17999 0
246.23 94.790001 -423.14999 0
173.46001 94.800003 -423.17001 0
246.88 94.830002 -423.13 2311
248.11 94.839996 -423.20001 0
247.56 94.900002 -423.10999 0
249.45 95.040001 -423.20001 0
250.3 95.07 -423.19 0
168.21001 95.269997 -423.17001 0
252.08 95.269997 -423.13 0
253.03 95.309998 -423.16 0
253.75 95.419998 -423.13 0
256.44 95.599998 -423.17999 0
259.35999 96.110001 -423.19 0
260 96.379997 -423.10999 0
260.78 96.5 -423.13 2455
265.51999 97.510002 -423.16 0
267.92001 98.25 -423.19 0
268.54999 98.589996 -423.14999 2509
269.04999 98.839996 -423.13 0
269.54001 98.910004 -423.19 0
269.79001 99.139999 -423.14001 0
270.28 99.269997 -423.17001 0
273.25 100.71 -423.13 0
274.29999 101.1 -423.14999 0
275.20999 101.32 -423.20001 0
277.34 102.4 -423.14001 0
277.56 102.6 -423.10999 0
278.13 102.67 -423.17999 0
279.22 103.34 -423.14999 0
280.95001 104.53 -423.10999 0
281.32001 104.75 -423.13 0
281.67001 105.12 -423.10999 0
282.5 105.8 -423.12 0
283.01001 106.03 -423.17999 0
283.04001 106.42 -423.10999 0
283.82001 106.9 -423.20001 0
283.63 107.2 -423.12 0
283.92001 107.53 -423.14999 0
284.23999 107.97 -423.17001 0
284.54001 108.46 -423.19 3531
284.51001 109.63 -423.10999 0
284.73999 110.4 -423.13 3532
284.88 111.5 -423.14999 0
284.70999 112.01 -423.10999 3544
285.03 112.37 -423.17999 0
284.91 112.66 -423.17001 0
284.72 113.44 -423.14001 0
285 113.86 -423.20001 0
284.92001 114.74 -423.17001 0
284.87 115.24 -423.14999 0
284.76999 116.84 -423.14999 0
284.01001 118.46 -423.17999 0
283.63 118.84 -423.16 0
283.20001 119.15 -423.10999 0
282.70001 120.28 -423.14999 3601
152.08 120.78 -423.12 349
152.50999 120.88 -423.13 349
153.23 120.96 -423.12 0
153.82001 121.02 -423.19 0
154.37 121.09 -423.19 0
281.97 121.41 -423.14999 0
159.33 122.15 -423.16 363
141.24001 122.24 -423.17001 252
161.06 122.58 -423.17001 407
281.23001 122.5 -423.17999 0
161.7 122.75 -423.12 408
161.89 122.81 -423.14999 408
162.17 122.91 -423.10999 407
280.88 122.98 -423.19 0
162.41 123.03 -423.12 407
139.63 123.1 -423.17001 245
162.55 123.18 -423.17999 407
139.16 123.28 -423.10999 245
162.91 123.54 -423.10999 407
138.07001 123.69 -423.14001 0
138.25 123.6 -423.17001 0
162.75 123.75 -423.19 417
162.66 123.98 -423.17999 403
162.94 123.91 -423.13 417
162.82001 124.11 -423.10999 417
162.57001 124.2 -423.14001 403
162.39999 124.33 -423.14999 417
162.27 124.49 -423.17001 417
162.27 124.69 -423.13 417
279.01999 124.61 -423.19 0
162.19 124.83 -423.14001 417
161.92999 125.21 -423.17001 419
277.91 125.46 -423.17999 0
161.47 125.69 -423.17999 419
277.32001 125.88 -423.17999 0
161.12 125.98 -423.17999 415
160.77 126.28 -423.17999 415
276 126.53 -423.13 0
160.33 126.75 -423.14001 415
159.61 127.11 -423.20001 369
159.88 127.12 -423.13 369
159.14999 127.45 -423.14999 369
158.8 127.59 -423.17999 369
158.46001 127.82 -423.17999 392
158.36 127.96 -423.14999 392
158.22 128.02 -423.20001 392
273.20001 128.06 -423.14999 0
157.89 128.49001 -423.17001 392
272.13 128.58 -423.17001 0
271.59 128.87 -423.20001 0
157.46001 129.03999 -423.10999 392
270.88 129.03999 -423.14999 0
156.53999 129.75999 -423.14999 389
268.60999 129.83 -423.14001 2775
156.17 130.13 -423.17999 389
187.61 130.17999 -423.17001 0
188.27 130.12 -423.20001 0
186.71001 130.35001 -423.19 0
191.31 130.37 -423.14999 0
155.95 130.45 -423.13 381
185.91 130.47 -423.16 0
155.78999 130.59 -423.14999 380
191.77 130.55 -423.14001 0
155.67999 130.69 -423.16 381
265.81 130.71001 -423.17001 0
183.05 130.86 -423.14001 0
192.67999 130.97 -423.14001 0
264.54999 130.91 -423.10999 0
155.59 131.06 -423.19 385
178.57001 131.03999 -423.13 0
179.96001 131.09 -423.16 622
179.52 131.10001 -423.19 622
181.27 131.10001 -423.10999 0
182.00999 131.12 -423.13 0
264.31 131.14 -423.20001 0
155.67999 131.24001 -423.20001 385
180.32001 131.25999 -423.19 622
263.70999 131.2 -423.16 0
177.92 131.36 -423.14999 620
178.34 131.37 -423.20001 620
155.88 131.39999 -423.16 385
177.69 131.56 -423.17001 620
156.22 131.64999 -423.12 390
177.02 131.67 -423.10999 0
177.38 131.75999 -423.17999 620
260.17001 131.99001 -423.17001 0
156.53999 132.13 -423.16 0
176.69 132.17 -423.19 616
176.19 132.27 -423.14999 0
257.98001 132.27 -423.14001 0
156.92999 132.53 -423.17999 0
163.44 132.67999 -423.16 441
163.92999 132.69 -423.14999 450
164.56 132.69 -423.13 450
164.98 132.69 -423.10999 450
175.78999 132.64 -423.14999 618
254.49001 132.61 -423.14001 0
161.10001 132.78999 -423.12 443
163.12 132.73 -423.16 441
163.67999 132.7 -423.17001 443
164.2 132.75999 -423.17999 450
174.32001 132.71001 -423.14001 0
175.13 132.77 -423.12 494
252.45 132.7 -423.13 0
157.36 132.81 -423.17999 396
161.55 132.84 -423.16 443
162.24001 132.8 -423.14001 441
162.77 132.82001 -423.17001 443
165.17 132.81 -423.13 450
173.14 132.86 -423.13 0
175.42999 132.85001 -423.14999 618
157.67 132.96001 -423.14001 396
160.53999 132.98 -423.17001 443
161.86 132.92999 -423.19 440
162.42999 132.92 -423.19 443
164.83 132.91 -423.17999 450
171.28999 132.94 -423.10999 0
172.09 132.94 -423.14001 0
174.64 132.92999 -423.17999 494
174.92999 132.91 -423.14999 494
175.71001 132.99001 -423.19 618
175.99001 132.91 -423.20001 618
249.2 132.99001 -423.16 0
159.46001 133.03 -423.13 440
160.08 133.08 -423.17999 440
165.12 133.00999 -423.16 455
165.27 133.09 -423.13 455
175.21001 133 -423.16 618
199.3 133.02 -423.17999 0
157.72 133.17 -423.16 396
159.75999 133.13 -423.17999 440
164.91 133.17999 -423.20001 455
165.14 133.17999 -423.16 452
170.92 133.17 -423.14999 0
175.05 133.13 -423.20001 494
175.46001 133.11 -423.19 618
165.27 133.24001 -423.14001 452
200.92 133.24001 -423.12 727
201.36 133.28 -423.12 0
246.78999 133.27 -423.17999 2593
157.92999 133.34 -423.14001 399
158.19 133.39 -423.12 399
165.39 133.37 -423.12 455
170.57001 133.31 -423.14001 0
158.50999 133.42999 -423.14999 399
158.86 133.41 -423.20001 395
165.12 133.39999 -423.17001 455
244.74001 133.44 -423.14001 2590
158.63 133.59 -423.20001 399
170.28999 133.55 -423.13 0
204.63 133.58 -423.14999 741
158 133.60001 -423.19 396
165.32001 133.66 -423.14999 455
205.62 133.63 -423.13 0
206 133.64999 -423.14999 0
238.02 133.66 -423.17001 0
239.41 133.66 -423.13 0
242.03 133.64999 -423.12 0
243.44 133.60001 -423.19 0
158.2 133.71001 -423.17999 396
165.07001 133.71001 -423.19 455
206.91 133.71001 -423.10999 0
235.22 133.77 -423.12 2236
165.57001 133.87 -423.12 452
233.78999 133.83 -423.10999 0
234.39 133.84 -423.16 2236
164.66 133.98 -423.20001 452
165.05 133.95 -423.20001 455
165.28 133.94 -423.17001 455
168.97 133.92999 -423.10999 758
169.94 133.95 -423.12 481
170.2 133.92 -423.14999 481
170.41 133.94 -423.19 481
164.91 134.08 -423.20001 452
165.86 134.08 -423.10999 455
168.75 134.09 -423.13 479
169.21001 134.03999 -423.13 758
169.71001 134.07001 -423.12 479
164.42999 134.12 -423.20001 451
165.2 134.17 -423.20001 455
165.52 134.13 -423.14999 455
169.02 134.14 -423.14999 758
169.46001 134.12 -423.13 479
230.27 134.11 -423.10999 0
164.73 134.21001 -423.20001 452
165.82001 134.28999 -423.16 455
166.23 134.28999 -423.12 756
168.50999 134.22 -423.10999 478
168.8 134.27 -423.17001 479
169.28 134.21001 -423.16 479
169.67 134.25999 -423.14999 478
228.06 134.25999 -423.13 0
229.31 134.2 -423.14999 0
169.09 134.3 -423.20001 758
169.52 134.3 -423.17001 478
169.71001 134.38 -423.17999 478
169.86 134.38 -423.17001 478
170.03999 134.36 -423.17999 481
170.22 134.35001 -423.19 481
226.82001 134.38 -423.20001 0
166.11 134.46001 -423.19 452
166.48 134.48 -423.13 756
168.52 134.41 -423.14999 479
224.67999 134.44 -423.10999 0
166.39999 134.57001 -423.17999 756
168.37 134.59 -423.17999 758
218.17 134.52 -423.12 2172
218.98 134.57001 -423.20001 0
220.73 134.5 -423.14001 0
223.99001 134.53 -423.17999 0
166.67999 134.63 -423.14999 758
167.03999 134.73 -423.14001 756
167.49001 134.77 -423.13 758
167.99001 134.7 -423.13 758
202.50999 93.959999 -423.07999 0
203.17999 93.959999 -423.04999 0
204.03999 93.949997 -423.06 0
206.02 93.919998 -423.09 0
212.37 93.970001 -423.10001 0
195.75 94.080002 -423.01999 0
190.11 94.139999 -423.04001 0
190.86 94.099998 -423.07999 0
193.08 94.110001 -423.01999 0
215.37 94.120003 -423.01001 1919
185.62 94.239998 -423.09 0
188.87 94.25 -423.03 525
221.07001 94.209999 -423.10001 0
226.08 94.209999 -423.07999 0
226.50999 94.25 -423.03 2056
227.42 94.199997 -423.10001 0
227.82001 94.260002 -423.01001 0
231.99001 94.279999 -423.04001 0
233.25 94.230003 -423.07999 0
223.31 94.309998 -423.01999 0
234.17 94.309998 -423.01001 2108
237.00999 94.400002 -423.01999 2111
241.48 94.470001 -423.07001 0
173.85001 94.769997 -423.09 0
174.72 94.790001 -423.09 0
243.98 94.760002 -423.01999 0
244.89999 94.860001 -423.04999 2308
169.44 95.080002 -423.01999 0
171.53999 95.050003 -423.01999 0
248.3 95.029999 -423.07001 0
250.10001 95.300003 -423.01001 0
166.47 95.540001 -423.06 0
254.89 95.639999 -423.04001 0
164.36 95.760002 -423.01001 293
164.03 95.839996 -423.06 293
256.82999 95.860001 -423.04001 0
262.98001 97.129997 -423.06 0
266.22 97.919998 -423.04999 0
269.23001 99.169998 -423.01001 0
272 100.21 -423.10001 3296
275.64999 101.74 -423.10001 0
276.22 102.07 -423.07001 0
276.82001 102.31 -423.09 3307
279.41 103.75 -423.04999 0
280.34 104.39 -423.04001 3517
281.75 105.6 -423.01999 0
282.37 106.22 -423.01999 3521
283.10999 106.94 -423.04999 0
283.73001 108.52 -423.01999 0
284.01999 109.03 -423.04001 0
284.20001 110.94 -423.01001 0
284.51001 112.47 -423.07999 0
284.53 112.96 -423.09 0
284.04001 114.09 -423.01001 0
284.51999 114.48 -423.10001 3545
284.26999 115.13 -423.04001 0
284.29999 115.78 -423.04001 3550
284.23001 117.44 -423.10001 0
283.76999 118 -423.07001 0
283.31 118.56 -423.06 0
282.82999 119.67 -423.10001 0
281.97 120.67 -423.04001 0
152.28 120.85 -423.01001 349
158.47 121.94 -423.09 362
281.17999 121.9 -423.07001 0
141.10001 122.33 -423.06 252
160 122.3 -423.07001 0
280.47 122.41 -423.01001 0
161.56 122.7 -423.07999 407
140.27 122.8 -423.07999 252
162.81 123.33 -423.09 407
163.17999 123.55 -423.01999 407
279.39999 123.59 -423.03 0
163.31 123.69 -423.03 407
163.05 123.71 -423.10001 407
137.8 123.86 -423.03 0
163.28 123.86 -423.06 417
163.17999 124.08 -423.06 417
278.97 124.09 -423.04999 0
162.96001 124.21 -423.06 417
163.2 124.28 -423.01001 417
162.73 124.3 -423.07001 403
162.53999 124.4 -423.09 403
162.92999 124.4 -423.01001 417
278.48999 124.4 -423.03 0
162.67 124.55 -423.01999 403
162.42 124.61 -423.07999 417
162.32001 124.88 -423.04999 417
278.04999 124.88 -423.06 0
162.16 125.06 -423.09 417
277.17001 125.38 -423.01001 0
161.85001 125.52 -423.06 417
276.51001 125.96 -423.04001 3571
160.64 126.6 -423.04999 415
160.22 127.05 -423.04001 369
274.60001 127.17 -423.07999 0
159.60001 127.4 -423.06 369
273.81 127.6 -423.07999 0
158.67999 127.83 -423.09 392
158.99001 127.8 -423.01001 392
158.53 128.02 -423.04001 392
158.37 128.14 -423.04999 392
272.53 128.13 -423.06 3585
158.21001 128.25999 -423.07001 392
271.98999 128.25 -423.01001 0
158.09 128.39 -423.07999 392
271.56 128.49001 -423.04001 0
271.10999 128.7 -423.04999 0
157.75999 128.84 -423.04999 392
270 129.10001 -423.03 0
156.92 129.52 -423.07999 390
188.78 129.99001 -423.07001 656
189.21001 129.98 -423.06 0
267.87 129.95 -423.09 0
189.96001 130.02 -423.07001 0
267.20001 130.07001 -423.04999 0
190.81 130.17999 -423.07001 0
266.62 130.17999 -423.01999 2766
186.38 130.25 -423.04999 0
183.24001 130.39999 -423.01001 624
185.27 130.49001 -423.07001 0
185.64 130.39999 -423.06 0
182.85001 130.52 -423.01001 624
184.28 130.53999 -423.06 0
184.82001 130.57001 -423.07999 652
155.89999 130.62 -423.03 381
179.39 130.69 -423.03 622
179.67999 130.67 -423.01001 622
183.61 130.63 -423.10001 0
178.89 130.74001 -423.04999 0
265.06 130.72 -423.07001 0
155.78999 130.86 -423.04999 381
179.71001 130.89 -423.10001 622
179.92999 130.8 -423.04001 622
182.55 130.87 -423.07999 0
264.03 130.86 -423.01001 0
180.21001 130.94 -423.07001 622
180.60001 130.89999 -423.03 0
178.03999 131.03999 -423.07001 0
155.84 131.14 -423.07001 381
